# .PCD v0.7 - Point Cloud Data file format
VERSION 0.7
FIELDS x y z
SIZE 4 4 4
TYPE F F F
COUNT 1 1 1
WIDTH 1401
HEIGHT 1
VIEWPOINT 0 0 0 1 0 0 0
POINTS 1401
DATA ascii
-0.056335986 0.089424074 0.48778394
-0.046565294 0.17364484 0.080271006
0.010336846 0.17286855 0.18700486
0.101006 0.13815963 0.43508422
-0.0030230582 0.18472594 0.11884278
0.15982473 0.23646772 0.024046898
0.062435687 0.14024663 0.96692514
-0.12101158 0.12554741 0.072665095
-0.13588521 0.17684317 0.020056605
0.018920571 0.18567684 0.11638248
-0.060365766 0.11644369 0.36226809
0.13742216 0.11228752 0.5527873
-0.13385564 0.16510451 0.039538026
-0.061622411 0.24664319 0.012757838
-0.10402468 0.20025674 0.013960481
-0.010749817 0.099670649 0.67508769
0.23220578 0.034716785 0.045529723
0.19770551 0.17459768 0.045623899
0.014769405 0.15099221 0.33118761
0.14119591 0.10466182 0.58035094
0.16907947 0.082138598 0.73350489
0.029974908 0.18044609 0.14243126
-0.19211408 0.061853349 0.11312491
0.17466664 0.05378598 0.083676815
0.16652587 0.22329113 0.026197314
0.13623777 0.119533 0.9100312
0.20324066 0.13293993 0.07017839
0.0069820583 0.10998243 0.78322774
-0.039054483 0.077442646 0.78359562
0.005785197 0.18320578 0.13433552
-0.0020034313 0.14297307 0.35772938
0.031695098 0.26303107 0.020844579
-0.22476694 0.032031596 0.071902812
0.173292 -0.015401542 0.16659808
-0.014505953 0.10243231 0.92694283
0.017158598 0.22929838 0.052214265
0.13784035 0.11362964 0.77981341
0.17964342 0.067342103 0.92329466
-0.20856681 0.095171869 0.058826208
0.027807891 0.1256066 0.9123227
0.14877659 0.10060918 0.27472347
0.14631021 0.1075542 0.46153221
0.14413363 0.10971683 0.68080652
0.0046656728 0.14575481 0.37324476
0.13084809 0.11735469 0.8004356
-0.011431545 0.16047341 0.26526809
0.10463291 0.14841205 0.232126
0.23364189 0.027442575 0.0466851
0.15948121 0.093781948 0.71590126
0.030058891 0.12435347 0.6703763
0.006696403 0.1862582 0.12907612
0.16554257 0.062337458 0.26152718
0.19954081 0.18978268 0.032325983
-0.017283976 0.18361413 0.094720006
-0.074254334 0.14033169 0.23682058
0.17956389 0.053440869 0.5983699
0.17782623 -0.017267108 0.13266313
-0.029116005 0.18142578 0.096178889
-0.018489838 0.17161161 0.189417
-0.17434445 0.1350677 0.048693657
-0.050681978 0.066242039 0.74329388
0.13870667 0.10822183 0.62025958
0.011652827 0.17381883 0.1925782
0.18024428 0.024571121 0.37187612
0.22276352 0.16154915 0.032926917
-0.019003361 0.16261744 0.22892046
-0.18841615 0.11922061 0.055453956
0.17272045 0.010204196 0.18233657
0.10629596 0.1302169 0.4759073
-0.047181547 0.17363471 0.11913007
-0.13255301 0.12881404 0.13860792
0.12196317 0.23235551 0.031474888
0.050422758 0.15314418 0.35104817
0.003926456 0.11568981 0.93951106
0.015194207 0.1172061 0.88734889
0.1627543 0.090339959 0.84695625
0.12549798 0.12245929 0.87397808
-0.090355396 0.14457667 0.18200111
0.13821518 0.11383891 0.35144436
0.17962965 -0.025986075 0.11279458
-0.047419637 0.10082352 0.46355307
-0.041555673 0.22504336 0.29542905
-0.049044877 0.11412406 0.39515561
-0.09459585 0.16590416 0.073283195
0.045780927 0.23979768 0.025671721
-0.040161461 0.14260668 0.29771322
0.18420677 0.10848862 0.054374218
-0.052760661 0.17129606 0.096607208
0.21505751 -0.043438613 0.06735301
0.17003989 0.068483174 0.36143494
0.10817499 0.24370256 0.020216584
0.15551218 0.096903801 0.67048824
-0.0092699826 0.11716843 0.51761776
0.16576533 0.088657558 0.9233228
0.16825992 0.075049579 0.37698156
-0.0034339726 0.23843887 0.024598062
0.17665011 0.029133618 0.10236967
-0.086164206 0.1926854 0.038491428
0.034223318 0.15159595 0.34975064
-0.14586523 0.11856818 0.13615793
0.14723635 0.10046333 0.20053321
0.13636084 0.11251318 0.5259614
0.18330111 0.047831833 0.68444031
0.049663216 0.13162166 0.6205256
0.16224988 0.072632074 0.26613587
0.22574222 0.21045682 0.019796669
0.16517463 0.059283853 0.23954415
0.13912529 0.11985523 0.12372243
0.16896346 0.081610084 0.76715928
0.09376961 0.12877357 0.65769017
-0.069964379 0.1617021 0.073806643
-0.16184571 0.092995107 0.13799596
0.03685385 0.17056781 0.21637976
0.17073125 0.046509385 0.3032856
0.14007559 0.11018997 0.1905607
0.062037796 0.13748109 0.92522889
0.025622517 0.12220073 0.69326282
-0.14416799 0.16330272 0.047362089
0.11257936 0.13070172 0.37959826
0.18377672 0.059768498 0.91591132
0.13646135 0.11705911 0.22193325
0.0019741654 0.13145381 0.4433789
-0.046142012 0.10597825 0.43552458
0.0056949258 0.13336015 0.44628149
0.010381609 0.11613882 0.89906698
0.1656772 0.066214144 0.10886759
0.077477217 0.13649136 0.90199131
0.19962811 0.027008951 0.067647338
0.18125539 0.056213737 0.75314003
0.037892222 0.12800759 0.83620775
0.094178721 0.14542711 0.34017825
0.065711662 0.14930665 0.35743427
0.094112769 0.15112478 0.26954091
0.1879212 0.032099187 0.92097849
0.091536999 0.17949718 0.069877386
0.1696983 0.07259804 0.47266752
0.1392871 0.10654819 0.49349359
-0.0016878247 0.25315279 0.023650646
0.018104881 0.12038553 0.91561472
0.2099199 0.24584779 0.015885472
0.15459736 0.095637619 0.40696353
0.019716173 0.20686543 0.057489216
0.01465413 0.11618423 0.83140457
0.025355667 0.11998481 0.7894001
-0.030159175 0.16466248 0.20216876
0.095392406 0.127985 0.62538779
0.10011137 0.16032273 0.12299377
-0.0064716637 0.15499932 0.29464376
-0.047449142 0.25642553 0.017451286
-0.047576904 0.071338713 0.8744396
-0.086346895 0.21143162 0.014763117
0.18103966 0.052133501 0.68837684
-0.041102231 0.11653864 0.39907187
0.12696014 0.12008667 0.65923464
0.093402594 0.14425844 0.33661622
0.035691291 0.22947863 0.037199616
0.12457934 0.12350768 0.86698443
0.14841467 0.10201848 0.24954563
-0.031145543 0.15705377 0.25320405
0.17052951 0.024889529 0.21802652
0.14645763 0.10342908 0.63757533
-0.086289138 0.10757154 0.32326525
0.1062828 0.13657272 0.38685966
-0.044265062 0.17230397 0.13524133
0.025239289 0.18321934 0.10372066
0.1568577 0.091259539 0.51493078
0.16362235 0.083638251 0.39071482
-0.051937193 0.1708554 0.13737833
-0.23788527 0.23552313 0.055675685
0.17056361 0.031984746 0.20488024
0.11251196 0.14441967 0.17487925
0.037827104 0.14814472 0.38429624
0.050366819 0.12936145 0.85695624
0.094226539 0.13680929 0.92038411
0.18533456 0.036683559 0.57771397
0.16640702 0.065886736 0.28826976
0.21914779 0.16870731 0.034934521
0.16977449 0.043906093 0.25967568
0.17239884 0.0014835 0.19433355
-0.017469496 0.13630205 0.37572968
0.0018196404 0.11499029 0.59857583
0.2257857 0.15709388 0.030792892
-0.038828671 0.082186222 0.77406979
0.13543884 0.16249818 0.054319382
0.25330865 0.10584879 0.034813643
0.13502592 0.1175583 0.37409389
0.15338364 0.091098368 0.25860614
0.075431228 0.13450497 0.52065796
0.13876553 0.11563414 0.24812531
0.023749501 0.15414459 0.33343816
0.00082424283 0.14606619 0.3456986
0.1117591 0.15213138 0.089830041
-0.063062221 0.14313316 0.25204802
-0.04576546 0.17801315 0.067205787
-0.01766023 0.17285901 0.16391951
0.004701525 0.16781694 0.22275662
0.096531048 0.13694 0.42182493
-0.16520739 0.12252647 0.075646818
-0.027227312 0.16926974 0.18191516
0.098913431 0.13136625 0.77253199
0.054860264 0.1472227 0.38716418
0.16520949 0.084660709 0.73331857
0.02169314 0.1688906 0.23212993
0.19692349 0.22336349 0.022969723
-0.018579781 0.23392829 0.031323552
0.15112308 0.0936535 0.14388084
0.17108712 0.030426979 0.26683283
0.047770888 0.22778025 0.035975814
0.13759094 0.11501104 0.22847605
-0.24772379 0.054025233 0.050189018
0.17798877 0.069541752 0.83389282
0.010517508 0.15853429 0.29627776
0.13510104 0.11968559 0.33408022
-0.039339811 0.081748486 0.58420628
-0.012975812 0.27703464 0.01452148
-0.042484909 0.10871202 0.43907899
0.18397716 0.041275799 0.58846426
0.016438901 0.14958143 0.34224552
-0.14874023 0.12726361 0.077562034
-0.031928748 0.21043983 0.051727057
0.17015412 0.068780363 0.37247425
0.10823728 0.13723135 0.3887307
0.16187671 0.084960222 0.55521721
0.097524926 0.1309284 0.49058253
0.16012694 0.090815008 0.45816275
0.15427217 0.097967505 0.81202668
0.18387282 0.035713613 0.55104202
0.18184203 0.04652828 0.50411087
0.045490414 0.1395207 0.97625315
-0.13452682 0.1288045 0.11452127
0.048920691 0.13714564 0.49652517
0.013230711 0.15399724 0.31369495
-0.081739098 0.17705625 0.066813111
0.1039196 0.12507761 0.57189697
0.17416051 0.2262235 0.019808471
0.032875896 0.15810615 0.30350381
-0.010267705 0.15071839 0.31287223
0.16442189 0.08788532 0.87315404
0.012782782 0.11570472 0.85426533
0.078452617 0.13027495 0.68969738
-0.2328923 0.24444175 0.052674294
-0.0098843277 0.096847892 0.7851274
0.023275852 0.15332109 0.32340336
0.071295351 0.13134694 0.61822349
0.18026975 0.056707799 0.79909068
0.02968806 0.12296098 0.75562727
0.19179896 0.024817288 0.071033478
0.12498713 0.13563222 0.107566
0.10057086 0.16028357 0.13439751
-0.060366541 0.13878536 0.27495676
0.12945582 0.23477665 0.024034441
0.24170153 0.019030273 0.044512093
-0.0073869526 0.14058656 0.36024225
0.1782873 0.052983165 0.44552606
0.027721137 0.12262726 0.86117733
0.17495206 0.0694502 0.8432126
0.14950876 0.10140473 0.61038899
0.13181052 0.24090207 0.01900816
0.13204242 0.1202336 0.24025476
0.14417192 0.11393541 0.1306324
0.17866147 0.053411543 0.47936028
0.18963668 0.00815624 0.48191366
0.18631873 0.048155785 0.89254618
-0.030594826 0.091487586 0.9173004
0.084042341 0.13512295 0.52323365
0.14403045 0.10500604 0.53796583
-0.056399852 0.067464828 0.71136028
-0.0354518 0.23452681 0.03081578
0.11566505 0.14440972 0.89995974
-0.059552699 0.15866071 0.17958236
0.17789507 0.058843374 0.62533695
0.16182303 0.10268718 0.95511186
0.1716893 0.013792872 0.20222306
0.074377492 0.17050797 0.1270467
-0.095929235 0.14848512 0.14383018
0.16760242 0.17093712 0.048592925
0.18251708 0.041924536 0.49178067
-0.020230561 0.17652798 0.13045847
0.03792575 0.13325471 0.94161677
0.041774809 0.13880146 0.48001558
0.17301947 0.025896847 0.29039806
0.17973757 0.048569977 0.44215742
-0.012044162 0.093329012 0.8187083
-0.08858037 0.15141135 0.14915264
-0.0012896955 0.11381876 0.95847487
0.05938217 0.13608187 0.89210182
-0.14657208 0.15814632 0.025827646
0.052821666 0.13401812 0.90045536
-0.084714651 0.12546307 0.26920164
-0.047061354 0.06813854 0.74240601
0.16958568 0.050616264 0.28000879
0.011645705 0.11690342 0.66404772
-0.047633022 0.16914302 0.15149486
-0.001768589 0.143296 0.37445164
-0.06239292 0.1697492 0.043954372
0.098800898 0.13066852 0.62914151
-0.040169507 0.12811971 0.36106348
0.21016832 0.27767727 0.015619695
0.083838508 0.13890851 0.88546693
0.14098011 0.1087234 0.45840502
0.12060249 0.12934738 0.88859361
0.14321709 0.10659999 0.50885987
0.06968385 0.18550983 0.072862983
0.064680219 0.14586776 0.39612579
0.018739104 0.17519242 0.18506074
0.098438978 0.1310209 0.51119536
0.0029873252 0.11241454 0.63869727
-0.071934789 0.19038704 0.052595258
-0.023973823 0.10254258 0.92941284
-0.021295637 0.090660453 0.66356903
-0.059258461 0.099829018 0.53636736
-0.23340169 0.034804761 0.065911591
-0.052747875 0.061949968 0.78768647
0.10796839 0.1270045 0.54377222
0.012348652 0.16094619 0.2838763
-0.019527495 0.1497066 0.30352247
0.17509435 0.068049669 0.64491737
-0.039447874 0.22848594 0.28126669
0.012530804 0.27500254 0.018905401
0.16690198 0.085563481 0.87947708
0.025897324 0.19016358 0.078947902
0.027721256 0.1323207 0.51245177
0.074771896 0.13260889 0.58178866
0.15676522 0.092334926 0.36873096
0.084200054 0.14120477 0.94141275
-0.22753641 0.068813503 0.059493005
-0.088585049 0.15707767 0.061189711
0.12706926 0.1170041 0.58310294
0.0869326 0.13805205 0.91423452
-0.13010961 0.16006094 0.063038111
0.075772807 0.15454692 0.28648388
-0.0062554181 0.11613441 0.9687801
0.10626616 0.13024944 0.75532687
0.08737205 0.25748932 0.018129826
0.15510453 0.097493351 0.66589952
-0.25257602 -0.014366925 0.069933057
0.091822699 0.15907419 0.16558564
-0.042489946 0.14526933 0.29077899
0.17804882 -0.0048194528 0.12832022
0.21710753 0.12909061 0.05221504
-0.045882374 0.074135602 0.58396685
0.00258407 0.12063998 0.52954054
0.037896365 0.12850934 0.77952206
0.053048164 0.13163465 0.59188867
0.023217112 0.12176305 0.79533416
-0.0028862357 0.18468446 0.12462401
0.17470726 0.020314634 0.13457739
0.23252228 0.011160254 0.047878861
0.15406695 0.11196172 0.94421333
-0.065004855 0.15213203 0.20408666
0.016339034 0.18718353 0.082486272
-0.26020214 0.021466076 0.065221071
-0.06601724 0.16183728 0.063978314
0.1462812 0.11002833 0.81226063
0.1669323 0.070157647 0.092398763
-0.14372674 0.15262902 0.050510406
-0.037849158 0.18257633 0.079306185
0.12702847 0.128793 0.19254291
-0.054787606 0.059559941 0.73269922
0.16343231 0.10990226 0.071809411
0.033844858 0.12708807 0.91092342
-0.0056272447 0.10793865 0.94287127
-0.053838581 0.089308143 0.48097935
-0.093440622 0.17194647 0.059330821
0.2045289 -0.021027386 0.90433091
-0.22434738 0.094383359 0.048417687
0.070514902 0.13363349 0.86361021
0.096503824 0.15241218 0.2143169
0.12411085 0.12149602 0.49263853
0.16842923 0.076606095 0.47658843
-0.0060024858 0.14638704 0.34077901
0.0094546974 0.19026774 0.075158715
0.046180516 0.13938391 0.96649945
-0.08272326 0.15731937 0.11772358
-0.23731551 0.018112421 0.071029365
-0.011286706 0.095699549 0.74714464
-0.047763139 0.070504904 0.7968272
0.09429656 0.15671891 0.20280087
-0.27685294 0.040281951 0.051261604
-0.097743243 0.11053687 0.28749537
-0.012245804 0.11051846 0.94006634
0.16539778 0.085123837 0.6997326
-0.062620848 0.21850646 0.038391709
0.056144893 0.13127953 0.62564516
0.0179061 0.11695725 0.7977773
0.057622775 0.1314202 0.8328566
-0.15433565 0.15327245 0.041125894
0.18879262 0.013588011 0.44676307
0.24799475 -0.024786651 0.048982143
0.13333425 0.11364597 0.49865213
-0.1435391 0.10511833 0.1716888
0.20429972 0.21475169 0.02144146
0.22728217 0.18686956 0.025458097
0.13525283 0.25463527 0.036135793
-0.013699144 0.13466561 0.38420224
0.025413454 0.24524596 0.024976254
0.11464013 0.27656952 0.0095292926
-0.078089088 0.20683789 0.023810863
0.18639153 0.028349698 0.88909137
0.17181461 0.073692977 0.80719221
0.031369597 0.16811782 0.24409628
0.0016194582 0.10685349 0.87941241
-0.062500983 0.17152905 0.054687381
0.17598373 0.055560708 0.40016842
0.14278555 0.10988116 0.32464981
-0.097564727 0.11980307 0.26121521
-0.068747371 0.2443606 0.0063109398
0.12340981 0.12237453 0.67082769
0.23492819 0.17460805 0.027634978
0.1584473 0.08056885 0.23616779
0.18519709 0.031482637 0.55708283
0.10049126 0.13041914 0.54006386
-0.079291493 0.16488504 0.057866335
-0.090347201 0.13748372 0.23366904
-0.078889936 0.15982217 0.10421199
-0.075387567 0.15522426 0.059670925
0.020661175 0.18156114 0.13360405
0.23026223 0.05708915 0.051617861
0.093209833 0.12907642 0.66904598
0.13542213 0.1120711 0.76609623
0.066590697 0.15007591 0.36157715
0.010749251 0.11488116 0.66960067
0.16505256 0.087296784 0.69261384
-0.0085327029 0.20211637 0.059354305
0.18640111 0.032025516 0.8196826
-0.011073172 0.1337986 0.40164882
-0.23208037 0.016345143 0.071291983
-0.16394407 0.10380965 0.12000698
-0.09721759 0.20791894 0.025557995
0.0019673407 0.17417544 0.18320066
0.035012156 0.12635392 0.77660877
0.0063213706 0.1178087 0.60351586
0.028966635 0.15003365 0.36824644
-0.087552816 0.16028959 0.17125726
0.19162168 0.062378824 0.063850343
0.18054694 0.061654925 0.87209207
0.1367358 0.11517107 0.89547753
0.16589247 0.17709845 0.049326897
0.18278608 0.050712824 0.64159447
0.12546936 0.12747741 0.35533774
0.23930034 0.27620447 0.013515472
-0.062071353 0.099468648 0.43422103
0.01686722 0.16175276 0.27463925
-0.017306626 0.17533636 0.15212822
0.099569082 0.24108997 0.018860459
-0.047444791 0.07746321 0.59103101
0.17924353 0.045311332 0.42055893
0.17366692 0.069257259 0.58973598
0.10025229 0.13113213 0.47352582
0.074495047 0.13367027 0.57446462
0.14650016 0.1094085 0.13472843
-0.00070247054 0.1081351 0.69734496
0.16013931 0.10019517 0.9444412
0.17161074 0.18714631 0.048046947
0.071194649 0.26637968 0.0061221719
0.068293422 0.13158697 0.7175858
0.014854342 0.11970145 0.61182582
0.012714654 0.12631017 0.97631806
-0.064074844 0.11368251 0.36263674
-0.058310539 0.12079173 0.34862888
0.17339033 0.057742655 0.085754991
-0.0064139068 0.15876812 0.27131987
0.12342629 0.12187827 0.48658368
0.0026341975 0.11130267 0.65989602
-0.2276713 0.021374762 0.074712753
0.17938948 0.057080626 0.58114374
-0.0045219362 0.13990045 0.38692421
0.18840688 0.1388365 0.048757792
0.078229994 0.13113683 0.59978878
0.071521908 0.13132137 0.57768154
0.14174396 0.11210179 0.87863261
0.065389827 0.17764437 0.11433697
0.023716003 0.16670471 0.24231362
-0.036789864 0.15940952 0.22715521
0.1404977 0.21390504 0.042020619
0.15765925 0.088949859 0.29269785
0.018975794 0.14083511 0.42806691
0.16689943 0.075276077 0.35993528
0.17159642 0.073122203 0.071974993
-0.016684383 0.087564409 0.814632
-0.19345072 0.083507359 0.050671637
0.18406421 0.035008311 0.51544464
0.1884433 0.085712612 0.06130743
0.064576536 0.26673439 0.014539421
0.15155876 0.22566491 0.027748704
0.056969434 0.18094504 0.12475491
0.18760094 0.01989764 0.59155911
0.06563957 0.20363745 0.057757974
-0.061474472 0.18527746 0.0594666
0.14485124 0.11136812 0.92261827
-0.13631517 0.10823494 0.18640751
0.069622204 0.16340107 0.22921896
0.14617476 0.11363029 0.91069841
0.04163 0.12643224 0.71161646
0.10954705 0.15038496 0.14569223
0.038791806 0.13885576 0.95162803
0.023517579 0.12041974 0.83392847
0.032474816 0.14070582 0.45258969
0.15577246 0.095793545 0.43505913
-0.042973518 0.22869605 0.045580924
0.019494444 0.17705339 0.14513934
0.16584581 0.056936026 0.2294361
0.12744266 0.11694038 0.49822265
-0.0082503259 0.19090179 0.074997306
0.16722263 0.083881915 0.75284904
0.18030202 0.060518801 0.88749504
0.1478119 0.10511523 0.48007613
0.16167657 0.17852169 0.04911536
-7.6860189e-05 0.10572058 0.81456512
0.15952204 0.099787414 0.93381929
0.12286165 0.12516898 0.41613287
0.021404088 0.17556477 0.17933142
0.18825361 0.0036279559 0.54947692
-0.034553319 0.10861379 0.89024407
0.011810511 0.11582768 0.72541249
-0.053471595 0.094754398 0.46642128
0.13359135 0.12292457 0.20827615
-0.057688624 0.063754082 0.76602346
0.1847302 0.044237852 0.87251711
0.13695015 0.11299473 0.7330637
0.046601921 0.17687273 0.15739071
0.13799751 0.12184352 0.10763657
0.1614747 0.091387451 0.83050191
0.17221905 0.019271791 0.18560749
0.1297221 0.1148991 0.62176412
0.15281852 0.096139193 0.58241355
0.12236279 0.13898224 0.14594412
0.096246079 0.13111442 0.70098066
-0.030575663 0.35527074 0.076803684
0.19329232 -0.038925588 0.072663724
0.0094723105 0.17750257 0.1743238
0.21084827 0.21235788 0.022059202
0.086324796 0.1354984 0.47721118
-0.22048119 0.083074331 0.056697667
-0.014297634 0.18210912 0.12263632
0.13465995 0.11335647 0.71625268
0.058144271 0.1803655 0.11546636
-0.053861648 0.14035076 0.28861719
0.15007624 0.13293374 0.068876028
0.1201009 0.13212031 0.30048966
0.11619878 0.13155639 0.90072316
-0.092102617 0.18272659 0.051300466
-0.078390837 0.15981537 0.13674557
0.15591648 0.086312532 0.25723034
0.11823615 0.12047893 0.63006377
0.049734503 0.27568954 0.011421144
-0.092336476 0.14331913 0.053887725
-0.0080730617 0.10602921 0.62520993
-0.03873679 0.078171909 0.91527355
0.18728723 0.024051309 0.60827994
0.10369013 0.14989686 0.21481842
-0.0099260509 0.2827464 0.015594482
0.0063085258 0.11173695 0.88485616
0.025466383 0.15750009 0.30996573
0.13507845 0.21077234 0.045728922
0.078273028 0.16870606 0.15884751
0.076511189 0.14291275 0.40664268
0.075965032 0.14597821 0.38279355
0.14705595 0.10698241 0.8109138
0.05370912 0.1289807 0.67092395
-0.059709281 0.16823334 0.087452471
0.0090159476 0.19526544 0.069407105
0.12496784 0.16966611 0.063476086
0.020686239 0.12244415 0.91882718
0.12574506 0.13155597 0.93658757
0.0056664646 0.11225015 0.68777263
0.0050669611 0.1184938 0.56449419
0.12344931 0.1330542 0.15863383
0.10711884 0.1282661 0.65590042
0.088241279 0.14149427 0.92744064
0.18800265 0.028237045 0.92318261
0.09741801 0.12920046 0.70729136
-0.057079583 0.14042354 0.27849233
0.15121832 0.096313179 0.26298183
-0.10377476 0.19820693 0.005512476
0.029404074 0.1292221 0.55122262
0.086683139 0.14661032 0.33614731
0.13483986 0.11592984 0.72173917
-0.045861453 0.13944703 0.30545413
0.2018325 0.042529225 0.061351359
0.030622989 0.16844279 0.23430729
-0.049440175 0.25174657 0.016163707
0.18450794 0.017964184 0.90061665
0.15491407 0.088747084 0.13245142
0.17986068 0.054824173 0.50160557
0.12314528 0.14674127 0.08706069
-0.004971534 0.13700533 0.39363956
0.052765608 0.1319471 0.55298603
0.16749969 0.076312482 0.43124592
0.15287963 0.088956058 0.14081299
0.14499497 0.10554028 0.20516312
0.076062351 0.13390917 0.60223997
-0.078126967 0.14619023 0.20245838
0.24334921 0.030365109 0.043165505
0.1711325 0.078826368 0.8129074
0.072613671 0.14958608 0.34980607
0.029498488 0.15659142 0.31523532
-0.033730894 0.090411007 0.56974828
0.16926372 0.042503536 0.16577244
0.14497158 0.10575622 0.62112749
0.18694362 0.026322544 0.80915231
0.12183543 0.12877792 0.40129393
0.095925868 0.13899225 0.42465866
0.10936955 0.12718219 0.58136094
0.0062061846 0.18884 0.075127006
0.18607582 0.031196535 0.89245814
0.13060924 0.2211509 0.043063879
0.16245219 0.090272903 0.78360754
0.017781049 0.13740802 0.43983668
0.18109138 0.051132023 0.52418649
0.016112596 0.12973464 0.98083425
0.10504875 0.12421411 0.64595205
0.065504208 0.13440818 0.81855154
0.028816134 0.19305757 0.069114566
-0.04780218 0.068801105 0.79953617
0.13646415 0.11681497 0.85446739
0.12137645 0.12005091 0.57140476
0.089244902 0.14250714 0.37222558
0.028319538 0.12527692 0.60423023
-0.035920709 0.22977003 0.036625385
0.1349553 0.12050313 0.78769958
0.0064203441 0.11894113 0.95244634
0.13104968 0.25504637 0.035588861
-0.078449428 0.13944489 0.23253715
-0.057607085 0.060278833 0.78881675
-0.012172967 0.22858724 0.03473568
0.11680871 0.15062004 0.09748733
0.22796792 0.17268443 0.030178189
0.094697356 0.16704589 0.095719695
-0.022462785 0.16896671 0.18780231
0.16960087 0.037738979 0.24444199
0.014805406 0.14241773 0.40059978
-0.047199398 0.11736441 0.54333133
0.017125934 0.12751549 0.94144845
0.016807377 0.13984662 0.42296547
0.081009105 0.13229215 0.67564154
0.0004901886 0.12972844 0.45067412
0.16596051 0.082110047 0.48065397
0.011419803 0.1634059 0.26116836
0.16402097 0.084833443 0.40212631
0.17910339 0.15741169 0.04897666
-0.092960209 0.19750363 0.039947033
0.0097924173 0.26812819 0.015663207
-0.3042883 0.016679347 0.036246598
0.12765226 0.13008881 0.94376504
0.15619886 0.24999207 0.016007781
0.025687724 0.16230261 0.26565772
-0.014902711 0.1493364 0.30958301
0.16927248 0.073900521 0.86976504
0.15703979 0.08902353 0.1001519
0.12608646 0.12790352 0.26571167
-0.22080317 0.028488338 0.079437852
-0.056916207 0.1551947 0.19727284
0.20530769 0.20900527 0.020391226
0.15332679 0.099160373 0.45790619
-0.13865376 0.16534966 0.024122
-0.0067565739 0.20801198 0.058824658
-0.031339407 0.087510467 0.62713712
0.1702345 0.0068341494 0.23511273
0.13283771 0.19430012 0.043909252
0.12804753 0.12977505 0.15773648
-0.22154823 0.10589224 0.026967764
-0.064866304 0.12091941 0.32846522
0.16169263 0.072837532 0.13117045
0.1788301 0.074020326 0.93627065
0.16617906 0.079143226 0.61628824
0.10508212 0.26520941 0.0070258379
0.17817602 0.046813011 0.40328503
0.17623901 0.083376348 0.92853159
-0.029855728 0.16886324 0.1876806
0.061502188 0.13668746 0.90361309
0.17902485 0.029303253 0.35728437
0.1357556 0.11584669 0.8447746
0.069255486 0.13437968 0.53154677
0.084895492 0.16431898 0.17028582
0.13249245 0.12276936 0.19748819
-0.040911704 0.083834648 0.56818044
0.054841012 0.15361249 0.32312059
0.22638665 -0.02466625 0.061152816
-0.013444543 0.1043964 0.6091814
0.13196254 0.12433392 0.92186099
-0.027171612 0.091362357 0.87151772
-0.020935118 0.082535923 0.81306022
0.00048476458 0.13628793 0.96454203
0.14463182 0.23289898 0.023526192
0.026344568 0.1219995 0.64890432
0.18210509 0.040258884 0.43679088
0.14893426 0.10145313 0.53735304
0.0177342 0.12075943 0.8920759
-0.073945671 0.14606655 0.20834392
0.19009602 0.064149559 0.95219791
0.050335109 0.18151325 0.11549747
0.18287858 0.039104164 0.47100458
0.13994485 0.10711449 0.57708246
0.17281151 0.0080426335 0.27050602
0.18368566 0.019434333 0.39567065
-0.12393895 0.13585705 0.14067411
0.1860742 0.035730541 0.65980768
0.15717168 0.10705602 0.93311417
0.16429856 0.077106416 0.30433708
0.16053577 0.086697221 0.43748498
-0.097955078 0.18194002 0.053441048
0.034893483 0.1820659 0.11437154
0.12850155 0.12448472 0.32390761
0.036507666 0.12702394 0.65148258
-0.19331375 0.11212206 0.057462931
-0.032844782 0.17083931 0.16094911
0.083142251 0.13370717 0.6453954
0.10853004 0.15113419 0.13536382
-0.017805159 0.15831596 0.26789743
-0.0085413754 0.10860699 0.58474755
-0.0056691766 0.10225409 0.72059232
0.071509436 0.13150775 0.58895707
0.2115801 0.12802279 0.050788105
0.18381292 0.034710824 0.4601444
0.11504117 0.12922078 0.90689713
0.18665804 0.056487978 0.95824552
0.18552095 0.0444749 0.8004514
0.064761445 0.13963574 0.93593013
0.059555486 0.13996363 0.94756246
-0.053674668 0.15388542 0.23053873
-0.16483751 0.14116412 0.049896002
0.10683826 0.15740472 0.1012255
-0.050079584 0.18391192 0.059975266
0.15304603 0.12894166 0.067963362
-0.063488394 0.16870207 0.12322807
0.020050347 0.12581605 0.56882596
-0.25477377 -0.0094621181 0.067104578
0.047200799 0.14370376 0.43881887
0.037261128 0.1307357 0.55082119
0.16997056 0.07569015 0.50427234
0.1732353 0.059097946 0.35736477
0.2496174 0.27965614 0.0088660717
0.14802568 0.10468227 0.64833057
0.021028727 0.1560936 0.30661988
-0.012240976 0.16744018 0.21418625
0.080150291 0.13326919 0.5588764
0.073720098 0.13582987 0.50397408
0.11381155 0.12834257 0.4636741
0.23284146 0.044345796 0.043510914
0.0094230771 0.13706058 0.43092978
-0.10228688 0.11920249 0.25866151
0.047376662 0.19326627 0.069459796
0.13193633 0.1157521 0.53069305
0.21751443 -0.038314283 0.067712545
0.035013855 0.18845108 0.075322628
0.11020823 0.14502525 0.24249053
0.18476239 0.00021582842 0.90538907
0.023353577 0.19274282 0.070321798
0.11587505 0.12358534 0.4875344
0.057549492 0.16027278 0.28238773
0.055392206 0.13292801 0.8546803
-0.054643959 0.1246798 0.33108318
-0.079944819 0.21815175 0.018407226
-0.17937452 0.10551447 0.066947222
0.020555943 0.11831456 0.80784571
-0.035687864 0.13514143 0.33817673
0.13232428 0.11458552 0.62678468
-0.0031956732 0.13150752 0.43808109
0.16829357 0.069294095 0.33787036
0.091771096 0.22091573 0.048696637
-0.20908841 0.085140646 0.061425328
0.060487807 0.15881693 0.29290414
-0.043073326 0.11978453 0.3814078
0.08804208 0.167319 0.13512045
0.042047203 0.12663263 0.84986341
0.00090643764 0.10741699 0.89235795
0.22935827 0.045144081 0.051641345
-0.039153934 0.19391313 0.067818522
0.071327373 0.13210785 0.55533373
0.15927744 0.0887146 0.34047019
0.092851847 0.1688388 0.099561989
-0.016126066 0.15487784 0.28600621
0.22980411 -0.014558494 0.051252723
0.10192798 0.12798679 0.68004787
0.1858919 0.027770102 0.67246437
0.15564115 0.094484687 0.3523885
-0.004150629 0.22147822 0.049795568
0.15940222 0.093557298 0.70473027
0.19602075 0.24525717 0.019674361
0.17506485 0.063237011 0.72191268
0.1578241 0.091076672 0.66700852
0.073706046 0.15677464 0.26854622
0.04932037 0.15193999 0.34191805
0.058136284 0.13890964 0.93834817
0.15627757 0.096060514 0.10097313
-0.20156547 0.12247294 0.018122315
0.17583795 0.081465542 0.9066875
0.084736019 0.14156371 0.42214692
0.24101937 0.2676059 0.014698029
0.22626457 0.24383187 0.018885493
0.092186391 0.16088253 0.18568218
0.0012355447 0.10768056 0.7298907
0.1041337 0.13816136 0.92502946
0.084263772 0.13236964 0.63154751
0.059274554 0.14820623 0.37384349
-0.0085600019 0.14803946 0.32976848
0.037814409 0.12944013 0.91492951
0.010438442 0.11758739 0.63078672
0.084104002 0.12994027 0.71640635
-0.24334624 0.054538965 0.064609885
0.17649984 0.057744384 0.42345339
0.17236733 0.058807313 0.36787909
-0.10175577 0.10227138 0.30055577
0.0062289536 0.11743063 0.57139355
-0.088424772 0.15540439 0.10037267
0.15792674 0.23988274 0.025353193
0.011433393 0.11611605 0.73670292
0.035332978 0.12300199 0.75476414
0.17892027 0.05823195 0.69711685
0.14228937 0.11051291 0.418329
0.011846334 0.12192035 0.94126809
0.21694034 0.074193299 0.058026552
-0.022732407 0.1010682 0.56110227
0.018804282 0.12791759 0.94963968
0.054133087 0.13364094 0.54579687
-0.054061621 0.14534283 0.26348627
-0.056388497 0.1581589 0.19041055
0.026241422 0.13118982 0.9659369
0.14131178 0.1076768 0.59866214
0.04263857 0.12660205 0.70700687
0.16051356 0.071922719 0.16594803
0.23904978 0.22920018 0.02232331
-0.021800071 0.12310791 0.43141675
0.17925666 0.049923301 0.87581968
-0.018681437 0.11512488 0.49069738
-0.029591441 0.26015133 0.020291805
0.092551395 0.14152992 0.39144474
-0.0048157871 0.1031822 0.75340617
-0.047617167 0.14334422 0.47360459
-0.020795524 0.099855483 0.57749999
0.25079191 0.12327731 0.035493076
0.018445879 0.14804655 0.35526359
0.027820796 0.13782239 0.44975305
-0.043379933 0.094450712 0.50442851
-0.19220063 0.090814054 0.055877268
0.18691376 0.025019109 0.8112247
0.16534692 0.21431789 0.039007008
0.13168943 0.1126411 0.67834336
0.1111995 0.12360626 0.74608815
0.20991744 0.1010595 0.0517627
0.024973005 0.1860269 0.091707289
-0.042308897 0.081710696 0.61268157
-0.0099129677 0.096750796 0.89707708
0.0018194914 0.1194374 0.94810247
0.084778279 0.13245648 0.53672481
0.17887785 0.28075606 0.012375951
-0.048496276 0.1738463 0.084739685
0.026971608 0.17859107 0.15451938
-0.0092236698 0.099922895 0.71635294
0.11011542 0.12322628 0.56026471
0.024274379 0.14432865 0.40842885
0.069660917 0.23531815 0.030850649
0.16484654 0.081092238 0.63312721
0.070452169 0.25634548 0.018468857
0.17789823 0.060720444 0.75535458
-0.12237552 0.12521237 0.071925581
0.061104044 0.12846226 0.6585356
0.12458351 0.28001329 0.0089274645
0.10964458 0.12624228 0.67907637
-0.04504782 0.080305338 0.56418622
-0.0058219731 0.12591332 0.45781812
0.16992152 0.069602966 0.87816435
0.075994849 0.1626029 0.22162056
0.17294298 0.076489985 0.85812235
0.11935996 0.13862652 0.19228321
-0.041055292 0.085601866 0.85840708
0.0070034564 0.1503765 0.33976394
0.1058401 0.12599027 0.71407521
0.23803204 0.15798551 0.02925396
0.15033671 0.10155302 0.38426256
0.17587513 0.068876982 0.70683467
0.15991892 0.093523204 0.81439
0.16109695 0.094940245 0.081141949
-0.091506094 0.12410611 0.25920498
0.16091236 0.085226357 0.34711564
-0.035540015 0.24287856 0.27978283
-0.08665666 0.14927763 0.16508365
-0.011877626 0.18709984 0.092387915
0.22735025 0.054026306 0.055932343
0.10848118 0.13047373 0.79052174
0.15602228 0.09202534 0.11710393
0.077588961 0.15589684 0.26805735
0.14591128 0.23780191 0.019021749
-0.025864184 0.24436995 0.024136186
0.19757496 0.024181426 0.071175933
0.13863561 0.11267328 0.40897304
0.1706261 0.06984061 0.4438093
0.053222448 0.14040905 0.96726263
-0.016104907 0.15921021 0.26181
0.12849241 0.12292933 0.86215353
0.17471859 -0.03023541 0.13922071
0.18673642 0.08573246 0.064027548
0.1852479 0.034493983 0.87801516
-0.0070467293 0.18412915 0.10823679
0.0088675916 0.11430675 0.65985245
0.062448025 0.13223463 0.54592967
0.1170326 0.13605994 0.26684177
0.18609063 0.0172683 0.75833189
0.15230991 0.11038095 0.082205772
0.24003975 0.037646294 0.044831038
0.18442966 0.041438401 0.76722682
0.18512851 0.010273516 0.397874
0.040046781 0.20991695 0.052491307
0.18708676 0.018188477 0.55788755
-0.0062526166 0.11272943 0.97608209
-0.0052395165 0.1100722 0.61167663
0.085846946 0.13123053 0.78869164
-0.013190925 0.1308431 0.95083261
0.076210797 0.13076091 0.71699452
0.1885324 0.21639192 0.024537444
0.18279541 0.045744598 0.62630689
0.11513288 0.12597293 0.89656246
0.043166488 0.15450615 0.33505571
0.10543533 0.13325161 0.44840389
0.23902752 0.092844605 0.041041017
-0.18082395 0.12235373 0.066114426
0.12023056 0.13375956 0.24002028
0.16875029 0.04632026 0.24094027
0.0309636 0.13394505 0.52181262
0.15601993 0.082103312 0.19251668
0.18665713 0.020198524 0.5684123
0.092634201 0.13051575 0.53985047
0.17778046 0.062666178 0.77546686
0.079353184 0.13071281 0.57100654
-0.030152887 0.099954963 0.92106354
-0.0045288801 0.17031223 0.19821882
0.11782472 0.13083297 0.43853146
0.1886726 0.054721534 0.94078875
0.0042049885 0.23623922 0.024382651
0.018608958 0.11923409 0.77457023
0.063108116 0.13786656 0.89712155
0.13737214 0.11886299 0.80261338
0.026370555 0.12377828 0.83881187
0.064857334 0.14293355 0.42572778
0.19322105 -0.0048023462 0.91693711
0.091337591 0.15923381 0.17520428
0.18798673 -0.039549291 0.89337993
0.16566527 0.086751699 0.78183383
0.0048848391 0.16958416 0.21602321
-0.22301176 0.2873922 0.010926306
0.036100537 0.18333662 0.12527335
-0.10434917 0.10315156 0.28885466
0.018337995 0.11915207 0.83072174
-0.041390628 0.081046522 0.88310695
0.17313272 0.027433455 0.30140829
-0.02937305 0.10118562 0.52365017
0.17472875 0.0047920346 0.27856719
0.15328319 0.098676801 0.32763517
0.12818147 0.12160146 0.39606959
0.14375557 0.10807341 0.27885354
-0.011425525 0.092818797 0.83077872
0.061281115 0.19166392 0.067203581
0.11365637 0.14169151 0.26343489
0.00057318807 0.11270726 0.93042094
-0.060636669 0.08449924 0.6441102
-0.16753921 0.15219039 0.041500568
0.17594135 0.078690708 0.88018209
0.13229588 0.12358934 0.88625717
0.083902895 0.12879169 0.60460693
0.17107327 0.0044983029 0.25188673
0.24072261 0.24118394 0.019940078
-0.031509936 0.10343003 0.50764728
-0.045798033 0.12310618 0.36784232
0.074769035 0.15358543 0.29812312
-0.014420807 0.17578983 0.15194607
0.0050542653 0.11224878 0.74974358
-0.04991892 0.24256593 0.025108218
0.059610635 0.14239252 0.94177365
0.16139643 0.084342122 0.36369622
0.053495854 0.1345225 0.52929425
0.11570469 0.12538582 0.78350341
0.043018967 0.13052183 0.89721763
0.15566577 0.16782981 0.049625993
0.18221059 0.05977571 0.92629248
0.13133301 0.11537367 0.55470932
0.10554835 0.22123995 0.045387208
0.0060366094 0.10973352 0.789859
0.088279888 0.15788704 0.23277104
0.1689824 0.067262352 0.35038209
-0.075001091 0.19642878 0.032972693
0.16654053 0.058674753 0.12228179
-0.24470118 0.070940852 0.052858233
0.11282079 0.13614172 0.39016527
0.15712661 0.25513089 0.017082572
-0.0033760071 0.12617284 0.47935492
0.1214259 0.12500954 0.45947826
0.18635906 0.005309999 0.90042949
0.060937554 0.13004458 0.71586359
0.023738801 0.12190509 0.90856802
-0.090863079 0.20630932 0.021176696
0.084716469 0.13878447 0.46123576
0.14600208 0.10554361 0.35692739
0.13921756 0.11163688 0.75145835
0.16502863 0.057584047 0.21724373
0.031395435 0.13653636 0.98006153
-0.25224462 0.014647186 0.066363215
-0.059185594 0.057210982 0.5862757
0.11198108 0.13472944 0.36774582
0.21309759 0.21779618 0.022023022
0.17117009 0.065311491 0.080658615
0.091109633 0.13304627 0.64644647
-0.00031891465 0.1752221 0.15952456
0.14237347 0.11698502 0.93229175
0.18210249 0.053539097 0.8051362
0.15481016 0.09403038 0.45950788
-0.030559391 0.17900592 0.10262376
0.0060347617 0.18005657 0.14111459
-0.039839059 0.078562558 0.89977086
0.092878059 0.13511384 0.9102211
0.10777088 0.20007777 0.048817515
0.17985263 0.049717367 0.45185393
0.19494058 0.0079493523 0.071094453
0.037609965 0.12482917 0.70837957
0.099282444 0.16253823 0.1044777
-0.23625901 0.086400568 0.032081842
0.17138708 -0.010767162 0.20260084
0.17508748 -0.014971614 0.14770657
0.15915249 0.10284597 0.88098645
0.13169767 0.12011009 0.36781728
0.074666157 0.12983781 0.78087091
0.035466552 0.23224452 0.031013727
0.055577695 0.20651567 0.052289844
0.003501147 0.11133814 0.91382337
0.17099917 0.06876719 0.42219663
0.091532782 0.13795644 0.4380517
-0.04599455 0.089665532 0.54793727
0.17393416 0.023168147 0.29619205
0.07552737 0.23981258 0.026703656
0.20983692 0.078961194 0.055855632
-0.021091014 0.12500876 0.9465133
-0.092310935 0.14903432 0.071833611
0.1937194 0.12104827 0.051151037
-0.054025501 0.17295784 0.11964887
-0.3031148 0.0034644604 0.037272036
0.173502 0.067493379 0.53478193
0.050214916 0.17160016 0.20058942
-0.068959922 0.13892454 0.25768614
-0.010164052 0.10949367 0.56678557
-0.014363855 0.2460568 0.02748394
0.16539106 0.059916198 0.20567733
-0.047782451 0.12528002 0.35187733
-0.021550179 0.17244709 0.18186653
0.15963197 0.097705364 0.82719827
0.16777569 0.072838604 0.085831285
0.035048544 0.1352067 0.50242984
0.15254742 0.17823672 0.046263933
0.032189637 0.13191265 0.50515676
0.064414322 0.16200984 0.25898498
0.043039024 0.12626022 0.66688025
0.1477755 0.099277854 0.5991658
0.19077721 0.0064745545 0.44161779
0.0058822334 0.17118186 0.2091645
-0.082943887 0.15174067 0.049546897
0.18421647 -0.0088309646 0.089275777
0.16871068 0.081201732 0.81803536
0.18338341 0.048591912 0.83931082
-0.065482229 0.14412445 0.2439422
-0.040309519 0.148844 0.27444577
-0.066461295 0.15999526 0.16346538
0.24503946 0.025523901 0.046138585
0.20331869 0.20374042 0.025809765
-0.077016979 0.14456707 0.21797627
0.17010656 0.012028754 0.23660922
0.071201891 0.13743895 0.91894335
-0.0056127608 0.10101861 0.75913417
0.1644621 0.10247713 0.87707782
0.13865528 0.21375552 0.041218996
0.11483534 0.1239202 0.53761721
-0.030689687 0.10555094 0.49041152
0.10621189 0.14928663 0.24347371
0.19500363 0.2152904 0.021224856
-0.011994809 0.2297805 0.038547516
0.11395946 0.12544167 0.71487558
-0.017218918 0.094183981 0.67338306
0.12831447 0.12075138 0.83869624
0.18564418 0.018057704 0.75922841
0.016476899 0.25542626 0.018999577
0.045088083 0.12988847 0.65438056
-0.0088763535 0.10605317 0.96090794
-0.0340828 0.083800137 0.6227563
-0.024362296 0.10152042 0.54382968
0.16177984 0.098133624 0.94883132
0.18812899 -0.023491919 0.079698026
0.09202379 0.13167858 0.65780091
0.24176082 0.13570911 0.031788945
-0.25427541 -0.010301054 0.12215257
0.049192697 0.13009 0.72724456
0.14359017 0.11200714 0.88367248
0.028686613 0.14166665 0.43555617
0.094179958 0.26307473 0.013733149
-0.091963232 0.210807 0.0088247061
0.14929377 0.10720593 0.91162658
0.15615179 0.09235096 0.54823947
0.15465125 0.10187775 0.90010673
0.078552037 0.19531429 0.06080997
-0.13646588 0.17344409 0.027631104
0.13026695 0.12914521 0.13645917
0.012444526 0.17330235 0.20264792
0.055169553 0.16520154 0.24299097
0.1425546 0.10857934 0.18227029
0.22442201 0.09866935 0.054314852
-0.0107131 0.13163924 0.41837543
0.0098297596 0.12172461 0.56672984
0.23805998 0.1949659 0.022889316
-0.20258936 0.10933954 0.056698501
-0.15624398 0.098751485 0.14162087
0.16596691 0.085647404 0.80655921
0.14604539 0.11667979 0.9271462
0.14899896 0.19028935 0.044365883
-0.21256486 0.09012711 0.061012685
0.16274552 0.081150293 0.30833864
0.092793271 0.1384716 0.40386581
0.15426597 0.098164141 0.89651978
-0.065121263 0.19220507 0.044507623
0.054940253 0.20171919 0.056316197
0.027914315 0.12459379 0.64212298
-0.0081500411 0.16012269 0.26038301
-0.0067403615 0.11141807 0.951406
-0.050057083 0.13176578 0.32731694
0.00091227889 0.11078119 0.91980731
-0.018594295 0.22568995 0.050119638
-0.025248975 0.10114866 0.5506264
-0.14718398 0.16589659 0.031231701
0.17075387 0.1075663 0.062326074
0.22755863 0.13421965 0.035216153
0.086744517 0.12939268 0.60806793
0.17158951 0.027184904 0.20232689
0.18624982 0.057732224 0.92756867
-0.037112117 0.092183769 0.54352701
0.1164659 0.1410439 0.15324545
0.073045567 0.177733 0.091227651
-0.042996019 0.081299961 0.55777061
-0.0011317432 0.12301219 0.4948253
-0.081186503 0.13257879 0.25626326
0.027029008 0.18369374 0.11367142
0.045663446 0.13098258 0.78921247
0.16734864 0.09129703 0.91068172
-0.050081432 0.16050327 0.21064579
0.17588562 0.058386743 0.49211806
-0.11624148 0.14160842 0.070058107
0.010929316 0.23141 0.028760672
-0.12687176 0.14601898 0.091354489
0.18396753 0.050974548 0.85839427
-0.067932606 0.10675305 0.36580378
-0.038673669 0.1065945 0.46563679
0.13242185 0.12354869 0.15967321
0.17979352 0.060202658 0.67431092
0.1190805 0.12182468 0.74509591
0.18440992 0.041742921 0.90744752
-0.23154166 0.050048828 0.064072192
0.18655366 0.021694064 0.5641737
-0.020302087 0.12891537 0.39839661
-0.24054077 0.05988282 0.049035907
0.053664863 0.1458059 0.39190561
-0.16614938 0.10511571 0.059263706
-0.054347068 0.057526529 0.6894421
0.09284693 0.12870765 0.7314766
0.17577356 -0.009988904 0.14914459
-0.091461569 0.12596935 0.25238711
0.068987116 0.1323483 0.60041147
0.17203559 0.07861954 0.85134363
0.061078519 0.13200796 0.84375107
0.14143594 0.10500735 0.59318054
-0.00085499883 0.1084559 0.66222095
0.18259206 -0.019295037 0.098872662
0.052428395 0.16925454 0.21864247
0.10732459 0.18880972 0.057187438
0.18994996 0.00066030025 0.40108788
-0.021349192 0.26280755 0.019827247
-0.012764812 0.091537297 0.85272163
0.077491522 0.14423746 0.39058673
0.24474688 0.068504512 0.040091515
0.19489282 0.12445986 0.049052477
0.13740252 0.11698538 0.18690395
0.082844719 0.13023281 0.66066116
-0.033758789 0.2298626 0.046998978
-0.16638699 0.14657205 0.026687264
0.11279766 0.14251 0.22593868
0.14430812 0.11289144 0.91662079
-0.071450263 0.12136447 0.31166852
0.065519661 0.13099509 0.70829582
0.1768544 -0.038609207 0.12442863
0.23746903 0.1861673 0.02550298
0.066847742 0.17805356 0.091786742
0.16059867 0.07844013 0.27703589
0.055105358 0.13047892 0.68137538
0.047850221 0.15410441 0.32957399
-0.28446111 -0.019138753 0.048534989
0.051986992 0.12819111 0.6768567
0.18082523 0.045656741 0.49248677
0.06661135 0.14106923 0.94048274
0.16133913 0.099499881 0.075753212
-0.024932057 0.096611857 0.57883692
0.14313677 0.12617117 0.075194836
0.097499043 0.13271314 0.88094378
0.069702938 0.13559228 0.83970952
0.18696783 0.079959571 0.06339407
0.033730596 0.13779497 0.97694683
-0.070705593 0.15778005 0.063011467
0.097093225 0.15274453 0.22507125
0.17463064 0.062853754 0.46832564
0.014090002 0.11717671 0.75301844
0.18767437 0.0046524405 0.55006635
0.047622979 0.1367566 0.93333286
0.0063832998 0.1185028 0.96857464
-0.051866561 0.067279518 0.79811913
0.070400953 0.13816321 0.91240472
0.18415871 0.031062365 0.43875593
0.18473959 0.029246509 0.54541594
0.21121442 0.24093169 0.019167662
0.18509786 0.031968474 0.45036283
0.099871799 0.13338453 0.82862854
0.081405833 0.16881925 0.13595593
-0.04991594 0.065527081 0.64961582
-0.13311443 0.14436334 0.081564426
-0.14866856 0.13039368 0.072585344
0.071554452 0.13160241 0.88558805
0.15568522 0.10917264 0.94976294
0.16182131 0.073306203 0.25949657
-0.070982844 0.13957983 0.2479918
0.089661926 0.12964761 0.71611214
0.15652995 0.093552887 0.62710524
-0.052689016 0.063995242 0.76515597
0.11298253 0.22813883 0.036686897
-0.021804839 0.093568981 0.63031346
0.16176325 0.06863606 0.24569809
-0.14795879 0.10641545 0.15250206
-0.00066944957 0.11330605 0.61592782
-0.062359005 0.10240597 0.41044939
-0.29665831 -0.020246744 0.038827956
-0.14919052 0.15769082 0.016247213
0.071041375 0.13757849 0.86869109
-0.067841262 0.11074048 0.35946405
0.13847174 0.10962945 0.44084007
0.0056103766 0.12039459 0.54003048
-0.040804118 0.08276087 0.81266201
0.11571224 0.12701625 0.4802689
-0.25337568 0.065171599 0.048810124
0.085168764 0.14728969 0.330024
-0.082093924 0.15967721 0.053951263
0.087002411 0.19986114 0.05533272
0.17428619 0.034163177 0.32877153
-0.15859172 0.093784869 0.14095968
0.096190289 0.13519561 0.87572873
-0.039280027 0.090788841 0.53713983
0.1523205 0.090335965 0.19672275
0.095294923 0.13150847 0.8087458
0.20701736 0.12199908 0.097193122
-0.2539939 0.057567179 0.055333257
0.049007237 0.25865859 0.019389272
0.087827832 0.13590676 0.50475001
-0.05500558 0.19882676 0.048441291
0.14009367 0.10831034 0.50381285
0.14213696 0.11079651 0.15391642
-0.050441206 0.06521076 0.68506014
-0.0036467612 0.17023718 0.20754778
0.017897755 0.1485123 0.36442924
-0.018019825 0.085007489 0.82124114
0.17876902 0.04003185 0.084139347
0.092983663 0.14743394 0.32216829
-0.042569607 0.12765628 0.3513903
-0.084822863 0.1447646 0.18866944
0.16296625 0.082465589 0.092226505
0.10794592 0.13256842 0.84529144
0.18525863 0.042851985 0.86288637
0.092771083 0.15262151 0.25047994
0.068808883 0.13671654 0.90196651
-0.084684879 0.223088 0.010974765
0.053476065 0.1305629 0.60301065
0.1742821 0.064891338 0.50574982
0.15409514 0.088740408 0.23114896
0.13129885 0.12498647 0.95584214
0.056611717 0.15374553 0.33361936
-0.0029623806 0.11069125 0.62309062
0.026058942 0.12378687 0.60960174
-0.035799831 0.13024813 0.36137515
0.10748366 0.13936317 0.32405549
-0.076247782 0.14247698 0.22475934
0.11645482 0.12310505 0.67881429
-0.06126669 0.16528767 0.13911003
0.15186641 0.10318512 0.81073201
0.16678375 0.070256591 0.3274433
0.078320757 0.17479914 0.095240116
0.15769906 0.08671999 0.11310709
0.18120719 0.050250769 0.072609484
-0.010733783 0.11338264 0.55128396
0.03784126 0.13687736 0.957138
0.015158147 0.23656201 0.028220773
0.070128113 0.17726326 0.09723264
0.17318931 0.071927726 0.82280648
-0.062404901 0.11916661 0.34546244
0.21886288 0.08802861 0.05259949
-0.14158776 0.14497441 0.063490748
0.2329047 0.15867037 0.030648351
0.16020602 0.22892195 0.0222857
0.0058453977 0.13810408 0.40402758
0.16354248 0.082960904 0.56142414
-0.016701758 0.10311019 0.96355104
-0.022261173 0.085696042 0.70463741
0.16982886 0.23836681 0.018145204
0.010267884 0.11495709 0.76993215
0.0015265048 0.10986221 0.66655982
0.18457581 0.033134818 0.49502829
0.17399622 0.039704382 0.32594454
0.20696168 0.11146808 0.06373775
0.14980073 0.10215819 0.71891379
0.13450393 0.11429316 0.47008365
0.14305824 0.10472101 0.66608614
0.15210539 0.098209918 0.49854228
0.20142688 0.078070045 0.057468772
-0.059059054 0.07662183 0.53822148
0.06402415 0.13850182 0.49480033
0.15326631 0.10050815 0.87788326
0.091750652 0.1479252 0.31235158
-0.06623736 0.19435251 0.049365163
0.037527889 0.12703598 0.85911787
-0.013988376 0.16769123 0.20499718
-0.048187286 0.076057494 0.87692022
0.031296045 0.18869042 0.074812531
0.13905993 0.11345565 0.44607878
0.15150934 0.26772761 0.015324295
0.14054674 0.11264789 0.39074481
0.24165285 0.24414918 0.016736507
0.1809527 0.048658788 0.46841249
0.16848227 0.27830082 0.0097081065
0.18224406 0.049584746 0.59545505
-0.09906736 0.19850287 0.033608913
0.13378192 0.120767 0.92661428
-0.14951581 0.13478023 0.06606847
0.090381071 0.13108802 0.76938188
0.16065809 0.099972904 0.87323201
-0.0067109764 0.16122955 0.26564968
0.15107144 0.09771651 0.54414815
-0.066794246 0.22769696 0.025896072
-0.056574583 0.16775233 0.075134635
0.14104193 0.10833097 0.19495666
0.21502084 0.22905329 0.020666301
0.033968866 0.2805433 0.009442389
0.13837251 0.11513221 0.78874779
0.035547525 0.13806492 0.46491227
0.17354712 0.067973077 0.69782209
-0.092218697 0.1730122 0.062839985
0.17369629 0.076652706 0.90182936
0.24141519 0.13048548 0.032494247
0.12875974 0.11480021 0.66285801
-0.13525212 0.11278224 0.17100549
0.20901185 0.11253852 0.047566652
0.14907286 0.10835648 0.85787994
0.17551197 0.069228768 0.6177994
0.19130844 0.23287898 0.022220671
0.18792279 0.011072576 0.47428203
0.032330215 0.15710759 0.32076222
-0.19799128 0.084638059 0.053006291
0.1755617 0.060771346 0.50200057
0.15357399 0.096655667 0.33454055
0.17316192 0.053049862 0.091347516
0.20103449 0.27806583 0.0097799301
0.0038351715 0.1093387 0.87441868
0.1777055 0.028575778 0.33979714
0.032541364 0.12723607 0.89397353
-0.071616083 0.10824829 0.35558516
-0.011528343 0.23545024 0.031297565
0.19615021 0.12024707 0.047387719
0.11062297 0.13056856 0.86257482
0.0078040063 0.25730664 0.018290997
0.16629937 0.058933318 0.26653659
0.1754126 0.036252677 0.099436045
-0.076971501 0.17179668 0.06125176
-0.01097393 0.12221813 0.46999463
0.072064608 0.13521439 0.92396653
0.033762723 0.1232518 0.70309126
-0.25204423 0.062171519 0.066394925
0.14208396 0.10626668 0.53113341
0.20623419 0.058425248 0.06110996
-0.14097843 0.16143125 0.02564919
-0.11030874 0.17540926 0.046589613
0.17750251 0.014457881 0.1135655
0.17495683 0.062964022 0.56821281
0.035418212 0.13240355 0.52787739
0.16144371 0.069295466 0.18313801
0.010333627 0.16115206 0.27296054
-0.058407098 0.21629438 0.04370445
0.011731744 0.14075321 0.41627562
0.061582685 0.13827294 0.47706777
0.0040792227 0.10814673 0.8183642
0.1826089 0.048146486 0.75558734
-0.013480783 0.093999684 0.73932415
0.0040720105 0.10983276 0.72126859
-0.23114309 -0.025210381 0.076704979
-0.082560569 0.23248312 0.0086062551
0.19055994 0.0074674487 0.43630034
0.087476492 0.14622605 0.34793478
0.087554902 0.13125408 0.56426466
0.018678397 0.27733952 0.014174581
-0.024478137 0.35089025 0.10968518
-0.057708085 0.17011267 0.10279167
0.061197251 0.13115346 0.7814424
0.20928255 -0.040740728 0.069736242
0.12674013 0.12356281 0.83116293
0.19137608 0.13950378 0.052052677
