# .PCD v0.7 - Point Cloud Data file format
VERSION 0.7
FIELDS x y z
SIZE 4 4 4
TYPE F F F
COUNT 1 1 1
WIDTH 1379
HEIGHT 1
VIEWPOINT 0 0 0 1 0 0 0
POINTS 1379
DATA ascii
0.20113584 -0.050947834 0.54589534
-0.0372045 -0.045675345 0.54577923
0.20297584 -0.045349859 0.54405254
-0.041259188 -0.033464838 0.54450351
0.20641261 -0.033812597 0.54462218
-0.04374456 -0.024212418 0.54552937
0.20876473 -0.024305437 0.54410666
-0.045251757 -0.015669459 0.54258627
0.209576 -0.016996233 0.54802662
-0.045850825 -0.0049988003 0.54552835
0.21067162 -0.0056327335 0.54400474
-0.046107586 0.0030482623 0.54518318
0.21083407 0.0038961675 0.5459522
-0.045338877 0.01483479 0.54255188
0.20969065 0.015932655 0.54515851
0.21005774 0.012108565 0.5457527
-0.04323414 0.025781138 0.54668975
0.2087682 0.024111839 0.54356045
-0.04123918 0.033667803 0.54424167
-0.039552309 0.038577788 0.54516637
0.20524991 0.037424449 0.54667586
-0.037840087 0.044778742 0.54397708
0.20287322 0.045452978 0.54494506
-0.033107173 0.053976156 0.54707897
0.19867486 0.0556501 0.54499447
0.20064522 0.051927593 0.54453278
-0.02713114 0.065234296 0.54598927
0.19309443 0.066241451 0.54549247
-0.021723438 0.073855497 0.54423326
-0.016892787 0.079634883 0.54373014
0.18667214 0.076659687 0.54556739
0.19082986 0.070695005 0.54614127
-0.01344716 0.083688408 0.54406232
-0.0089880116 0.088961512 0.54452717
0.17758301 0.088121779 0.54145694
0.18144247 0.083130769 0.54507291
-0.0038100677 0.093544327 0.54381675
0.0010761423 0.097387351 0.54398125
0.16586712 0.09943641 0.54211515
0.1733782 0.092876494 0.54550332
0.0074572545 0.1023402 0.54532826
0.015318244 0.10784827 0.54449832
0.15509248 0.10806926 0.54420149
0.16229081 0.10227882 0.54433751
0.023262858 0.11185867 0.54590565
0.033646312 0.11747047 0.54419392
0.04118669 0.11989209 0.54785323
0.13517575 0.11922441 0.54523361
0.1460114 0.11322749 0.5455569
0.15144029 0.11036666 0.54472083
0.045984704 0.12173215 0.54419011
0.055297248 0.12437684 0.54694045
0.065683492 0.12707463 0.54460472
0.07527557 0.12823607 0.54488158
0.086275771 0.12937686 0.54357886
0.094072506 0.12879512 0.54409939
0.10577406 0.12739101 0.54468864
0.11533029 0.1256336 0.54442406
0.12303105 0.12306225 0.54684025
0.13166583 0.12066424 0.54396594
0.047393925 -0.12120365 0.55552435
0.054201465 -0.123245 0.55563372
0.063618705 -0.12548304 0.55652469
0.075075179 -0.12700792 0.55387896
0.084229231 -0.12782401 0.55632055
0.094975658 -0.12786001 0.55477458
0.10608135 -0.12664163 0.55424356
0.11653049 -0.12457249 0.55374765
0.12568055 -0.12175247 0.55451107
0.025405888 -0.112445 0.55289227
0.033937447 -0.11658445 0.55521441
0.042768512 -0.11951709 0.55795091
0.1339564 -0.11880424 0.55668628
0.14426975 -0.11362515 0.55557549
0.15026008 -0.11060286 0.55288857
0.0077906637 -0.10094583 0.55604392
0.014865754 -0.10641725 0.554461
0.15648831 -0.10644289 0.555834
0.16180597 -0.10231237 0.55425924
-0.0031472412 -0.092356563 0.55446213
0.0037256028 -0.097746588 0.55536216
0.1679122 -0.097278826 0.55392528
0.17324707 -0.092630602 0.55564207
-0.011387788 -0.083934128 0.55467248
-0.0088008177 -0.087702774 0.55138123
0.17676137 -0.088735871 0.55396593
0.18246925 -0.081701085 0.55397439
-0.021621296 -0.072132245 0.55276871
-0.017187884 -0.076972239 0.55459386
0.18617895 -0.077038407 0.55537009
0.19024122 -0.071765751 0.55017531
-0.026648039 -0.063595392 0.55417621
0.19240105 -0.067520753 0.55395544
-0.03182631 -0.054878712 0.55161172
-0.029137392 -0.058016382 0.55735433
0.19801335 -0.056859352 0.55450344
0.20090973 -0.051315933 0.55069423
-0.036554504 -0.043621115 0.5536052
0.20271619 -0.045899328 0.55590373
-0.040761523 -0.031279467 0.55156744
-0.038471509 -0.036377519 0.55585802
0.20624927 -0.034124471 0.55437845
-0.041531127 -0.025613481 0.55663723
0.20868114 -0.024483763 0.55456799
-0.042977434 -0.015525041 0.55653727
0.20953451 -0.01734205 0.55422151
0.21013322 -0.011097966 0.55980241
-0.044015247 -0.0060769822 0.55599159
0.21080075 -0.0042099077 0.55586541
-0.04403935 0.0055076843 0.556198
0.21077047 0.0045407298 0.55459499
-0.042878468 0.016057901 0.55681622
0.20974755 0.015229902 0.55515331
0.21012646 0.011270242 0.55692405
-0.041562315 0.027052591 0.55439985
0.20842014 0.026134375 0.55420393
-0.040051248 0.032810524 0.5529241
-0.039341021 0.034859639 0.55340952
0.20640996 0.033518929 0.55354714
-0.035406206 0.046143517 0.55598634
0.20285599 0.045301117 0.55487514
-0.031919457 0.053315502 0.55607688
-0.028746564 0.059125714 0.55610025
0.19861144 0.055515449 0.55412513
0.20087241 0.051134646 0.55751252
-0.02611411 0.064602785 0.55410671
0.19357949 0.065025553 0.55517375
-0.022241071 0.070804909 0.55554616
-0.016452387 0.07774248 0.55515373
0.18636888 0.076656759 0.55484813
0.1903252 0.071280785 0.55689341
-0.011768882 0.083405249 0.55500412
-0.0080116112 0.087945595 0.55490172
0.17781952 0.087170631 0.55538881
0.18229271 0.081728049 0.55368674
-0.0021263706 0.093127996 0.55468345
0.0034287567 0.097507149 0.5553484
0.16813496 0.096864544 0.55502063
0.17216176 0.093572378 0.55425757
0.0077582309 0.10132919 0.55340767
0.014868983 0.10627311 0.55446851
0.021127824 0.10957509 0.55528718
0.15547101 0.10708156 0.55468547
0.16219303 0.10186302 0.55353445
0.025990611 0.11219999 0.55492228
0.035357539 0.11709419 0.55460048
0.042319067 0.11948854 0.55507517
0.13574181 0.11792959 0.5566681
0.1454048 0.11275809 0.55766439
0.15033674 0.11039165 0.55336475
0.046409294 0.12082268 0.55415547
0.054846562 0.12321908 0.55597836
0.065873869 0.12583022 0.55636609
0.076125443 0.12702222 0.55789661
0.08648181 0.12822561 0.55719823
0.094407417 0.12787548 0.55540854
0.10516822 0.12658368 0.5551604
0.11421216 0.12515311 0.55450034
0.12630188 0.12156133 0.55347389
0.13075796 0.12003053 0.55581248
0.047861427 -0.12035653 0.56393206
0.054279178 -0.12217945 0.56496298
0.06513615 -0.12477497 0.56607801
0.076178327 -0.12597032 0.56677353
0.085800998 -0.12715879 0.56577063
0.094408892 -0.12705261 0.56487525
0.10444468 -0.1259975 0.56383854
0.11561223 -0.12388911 0.56555665
0.12389297 -0.12144271 0.56500542
0.025565356 -0.11089274 0.56476152
0.034378536 -0.11535332 0.5658344
0.044001266 -0.11906107 0.56500429
0.12936789 -0.11956792 0.56764781
0.13505588 -0.11777154 0.56498367
0.14516394 -0.11254857 0.56379414
0.0080607804 -0.1004593 0.56058729
0.01457485 -0.10460713 0.56579071
0.021316629 -0.10857388 0.56520593
0.14989172 -0.10970458 0.56799531
0.15638235 -0.1059848 0.56362796
0.16262992 -0.10102896 0.56384099
-0.0019178346 -0.091500565 0.56604266
0.0038040287 -0.096169487 0.56591827
0.16590895 -0.098241001 0.56501514
0.17277457 -0.09250357 0.56421578
-0.01269014 -0.080515221 0.56345695
-0.0073748096 -0.086174615 0.56698394
0.17705944 -0.087794676 0.5650422
0.18138675 -0.082479179 0.56470573
-0.020512678 -0.070793912 0.56499308
-0.016962102 -0.075082287 0.56482923
0.18728931 -0.075109273 0.56602579
0.19051142 -0.070637375 0.56565332
-0.024358174 -0.064569168 0.56457061
0.19352812 -0.064875066 0.56674379
-0.030897627 -0.052481562 0.56475872
-0.027728552 -0.057744373 0.56664896
0.19757879 -0.057264861 0.56501269
0.20135725 -0.050111413 0.56174845
-0.034237172 -0.044890638 0.56544858
0.20324588 -0.043901514 0.56431478
-0.036818784 -0.035276912 0.56797075
0.2058575 -0.035144642 0.56516021
-0.040526032 -0.023167185 0.56614369
-0.039627146 -0.026741102 0.56658977
0.20863304 -0.024515567 0.5632019
-0.041513462 -0.015384841 0.56555712
0.20962016 -0.016336754 0.56350839
0.21013163 -0.011006197 0.56798947
-0.042551503 -0.0051933094 0.56543952
0.21066399 -0.0055463463 0.56595665
-0.042543761 0.0066452427 0.56459987
0.21060263 0.0062434734 0.56365931
-0.041886538 0.014375008 0.56389624
0.20969671 0.015664317 0.56368089
0.21011403 0.011309225 0.5650754
-0.040992588 0.02306271 0.56325603
-0.039709434 0.026884846 0.56609362
0.20846444 0.025926488 0.56475013
-0.037724156 0.034101237 0.56466377
0.20594338 0.034953441 0.56296581
-0.034436479 0.044530261 0.564843
0.2032012 0.044039853 0.56367528
-0.031486504 0.051463317 0.56455493
-0.028192911 0.057538882 0.56454015
0.19832852 0.055758283 0.56463975
0.20109209 0.050534278 0.56410027
-0.023462523 0.066178344 0.56471109
0.19332576 0.065238319 0.56480646
-0.015948975 0.076279059 0.56493318
0.18599306 0.076677822 0.56557888
0.19019103 0.071106672 0.56808537
-0.011189728 0.082375482 0.56320524
-0.0069277892 0.086857691 0.56629717
0.17699754 0.087675728 0.56771666
0.18160456 0.082068965 0.56599629
-0.0024242115 0.091371477 0.56424993
0.0035663398 0.095959656 0.56602478
0.16634628 0.097716443 0.5667004
0.17443897 0.090914562 0.56476545
0.0085603818 0.10023152 0.56466663
0.014950325 0.10498775 0.56381428
0.022176549 0.10903466 0.5643276
0.15349649 0.10797065 0.56364697
0.16298974 0.10068514 0.56316543
0.027068749 0.1113882 0.56635875
0.036129128 0.11645322 0.56381929
0.046148978 0.11955299 0.56567472
0.13537 0.11745743 0.56542224
0.1445833 0.11267301 0.56567758
0.048169412 0.12043953 0.56301945
0.05632754 0.1226727 0.56540793
0.065901183 0.12484448 0.5663743
0.074108347 0.12603754 0.56514335
0.087322257 0.12762769 0.5652436
0.094750971 0.12716162 0.56405479
0.10670877 0.1257007 0.56390202
0.11742497 0.12373575 0.56021881
0.12449559 0.12133231 0.56359702
0.053721733 -0.12105329 0.57474554
0.064176291 -0.12395948 0.57402843
0.075629219 -0.12511519 0.5755561
0.083711058 -0.12605242 0.5755223
0.094788216 -0.12615998 0.57490963
0.10604121 -0.12483796 0.5752815
0.11635932 -0.12300141 0.57516891
0.12235908 -0.12124722 0.57445085
0.028251998 -0.11134378 0.57234806
0.035655417 -0.11496567 0.57566828
0.045865282 -0.11873473 0.57367641
0.12888381 -0.11904027 0.5783689
0.13553238 -0.11682773 0.57540655
0.14522682 -0.11177305 0.57528394
0.015859051 -0.10438116 0.57420558
0.02274517 -0.10805745 0.57690644
0.14951344 -0.10940903 0.57668632
0.15467872 -0.10645787 0.57515895
0.16139549 -0.10140791 0.57544935
-0.0010643626 -0.090917252 0.57587945
0.0046398505 -0.095447324 0.57698268
0.16584449 -0.097743154 0.57507163
0.17351396 -0.091324776 0.57550144
-0.010249193 -0.081044972 0.57689297
-0.0046231165 -0.087819189 0.57546914
0.17682306 -0.087748095 0.57160968
0.18136412 -0.082058102 0.57443547
-0.014833447 -0.075986199 0.57356876
0.18658242 -0.075587511 0.57567513
-0.023244599 -0.063829333 0.57509792
-0.019835293 -0.069329202 0.5779559
0.19302288 -0.065562785 0.57462388
-0.030215044 -0.051493227 0.57274675
-0.027916184 -0.055404849 0.57411599
0.1968215 -0.058371056 0.57423109
0.20071405 -0.050966255 0.57516563
-0.032060374 -0.046440188 0.57658976
0.20339358 -0.04316951 0.57497156
-0.036200933 -0.033895534 0.57597119
0.20537131 -0.036553174 0.57463789
-0.038851202 -0.024636539 0.57597393
0.20868289 -0.024333937 0.57587028
-0.040513456 -0.013618723 0.5735696
-0.039767709 -0.018119296 0.57632375
0.20954515 -0.016987637 0.57406473
0.21006122 -0.011665069 0.57559347
-0.041352823 -0.0033718548 0.57534707
0.21070692 -0.0050143553 0.57386839
-0.041494783 0.0036801971 0.57364625
0.21083437 0.0037046184 0.57566422
-0.040575869 0.01377346 0.57293117
-0.039896995 0.017535314 0.57562208
0.20953706 0.017193634 0.57551306
0.21015596 0.010772409 0.57416517
-0.03866905 0.024695799 0.57669681
0.20846573 0.025447188 0.5759213
-0.036220059 0.034402631 0.57430148
0.20592608 0.034880519 0.57458538
-0.03274205 0.045092184 0.575023
0.20284589 0.045041181 0.57460165
-0.028349876 0.054183282 0.57602626
0.19793862 0.056216747 0.57506508
0.20070809 0.050962023 0.57532012
-0.023098916 0.064244144 0.57429206
0.1933239 0.06496153 0.5751465
-0.015525414 0.07504496 0.57417625
0.18689348 0.075199418 0.57509232
0.19029327 0.070656963 0.57712114
-0.0061936625 0.085884072 0.57580262
0.17553905 0.089315467 0.57154477
0.18141185 0.081946753 0.57526827
-0.00029443839 0.091918178 0.57208377
0.0057607251 0.096405864 0.57622987
0.010074378 0.099765137 0.57761574
0.16718619 0.096645378 0.5741272
0.17295855 0.091708101 0.57701045
0.014113071 0.10297537 0.57564914
0.022127712 0.10803237 0.57306147
0.15649828 0.10530041 0.57390004
0.16139235 0.10135984 0.5761323
0.027418114 0.11075 0.57425171
0.034648299 0.11443536 0.57600236
0.043285083 0.11790534 0.57428539
0.12877762 0.11910876 0.57728744
0.13500656 0.11703099 0.57532591
0.14408235 0.11236455 0.57542992
0.055143535 0.12144955 0.57500792
0.064311087 0.12390881 0.57423437
0.074375764 0.12501612 0.57625139
0.083435334 0.12622435 0.57516158
0.095629081 0.12605798 0.57687128
0.10537805 0.12483865 0.5772242
0.11478133 0.12332443 0.57640696
0.12318084 0.12108594 0.5720036
0.056891605 -0.12136494 0.58483821
0.066456854 -0.12357744 0.58426416
0.074535601 -0.12429405 0.58435327
0.086217403 -0.12550063 0.58484089
0.094659626 -0.12541923 0.58419132
0.10516429 -0.12439982 0.58369493
0.11501405 -0.12291833 0.58542895
0.12171854 -0.12095632 0.58416253
0.0288016 -0.11083481 0.58257902
0.033558127 -0.1131323 0.58553791
0.044838537 -0.11774398 0.58435404
0.05112461 -0.11963364 0.58459091
0.12789857 -0.11907118 0.58441091
0.13294251 -0.11747634 0.5848254
0.14318971 -0.11243808 0.58607763
0.016494101 -0.10383996 0.5855608
0.023237146 -0.10769334 0.58495784
0.14949432 -0.10901462 0.58705485
0.15505578 -0.10572896 0.58429128
0.16137503 -0.10107299 0.58621955
-0.0006423234 -0.090565518 0.5828321
0.0046542259 -0.094650798 0.58504784
0.010582906 -0.099874303 0.58101821
0.16788964 -0.095699064 0.58563125
0.17248942 -0.091930591 0.58439761
-0.0063972631 -0.084284522 0.58667731
0.17695428 -0.087180205 0.58655185
0.18170233 -0.081397638 0.58374709
-0.013872044 -0.075379714 0.58647549
0.18654752 -0.07541573 0.584189
-0.021897798 -0.064309984 0.58515298
0.19330326 -0.064843558 0.58555168
-0.026086032 -0.056813501 0.58396524
0.19785941 -0.056219019 0.5848183
0.20092231 -0.050427765 0.58389062
-0.031543627 -0.045118455 0.58661634
-0.029662397 -0.049964063 0.58519727
0.20317249 -0.043821398 0.58402318
-0.035286561 -0.03395997 0.58439451
0.20536691 -0.036461856 0.58651781
-0.037506569 -0.025579482 0.58663619
0.20896931 -0.022893501 0.58364475
-0.039381016 -0.013902969 0.58395386
0.20941645 -0.018310415 0.58269811
0.21009818 -0.011284029 0.58504844
-0.040382292 -0.0044925907 0.58335775
-0.039677896 -0.0072595947 0.58741951
0.21066326 -0.005460259 0.58468038
-0.040256493 0.0047223419 0.58425456
-0.039749574 0.0056217783 0.5881635
0.210648 0.0055550216 0.58394325
-0.039149381 0.01426462 0.5856933
0.20951955 0.017254919 0.58642417
0.21006091 0.011645947 0.58455819
-0.037979063 0.024691308 0.58398134
0.20870924 0.024208393 0.5853622
-0.034677435 0.036051642 0.58379459
0.20564292 0.035697106 0.58511621
-0.032133382 0.043932434 0.58449566
0.2022039 0.04695829 0.58420432
-0.026819918 0.054935653 0.58605319
0.19824646 0.055374932 0.58552319
0.20078894 0.050548945 0.5887329
-0.022176737 0.063426308 0.58646715
-0.019542135 0.068456158 0.5857048
0.19392619 0.063581362 0.58483219
-0.014874639 0.074194036 0.58562976
0.18595904 0.076023549 0.58589852
-0.005032008 0.085993499 0.58462995
0.17885689 0.084771141 0.58559912
0.18099974 0.082168616 0.58437753
0.0052833199 0.095077671 0.58511335
0.010563096 0.099090099 0.58777159
0.16774677 0.095718682 0.58631098
0.17196928 0.092332959 0.58373052
0.014631574 0.10266089 0.58393365
0.024197346 0.10806938 0.5858435
0.14816217 0.10968575 0.58665514
0.15395066 0.10659064 0.58531255
0.16095532 0.10137259 0.58545113
0.029097021 0.11085901 0.58357787
0.035791218 0.11429702 0.58500719
0.044367112 0.11759987 0.5837903
0.050655637 0.11930692 0.58676165
0.12978478 0.11821869 0.58970296
0.13506711 0.11659335 0.58545351
0.14396726 0.11197617 0.58577776
0.057563618 0.1215292 0.58481628
0.064809911 0.12345845 0.58435982
0.074370876 0.12435089 0.58488846
0.085360363 0.12569867 0.584068
0.094806731 0.12546647 0.58579147
0.1049286 0.1244046 0.58419871
0.11613455 0.12254214 0.58505315
0.1217593 0.12091994 0.58402336
0.058719248 -0.12135037 0.59377068
0.065115452 -0.12272979 0.59560573
0.076190956 -0.12385219 0.59469485
0.084553026 -0.124539 0.59547377
0.095986933 -0.1247308 0.5927512
0.10624395 -0.12385505 0.59459394
0.11444803 -0.12263693 0.59465098
0.12104885 -0.12061189 0.59651136
0.033524208 -0.1124651 0.59389371
0.046234705 -0.1176146 0.59297377
0.052568976 -0.11940026 0.59513807
0.12621449 -0.11916266 0.59386617
0.13613665 -0.11573903 0.59284866
0.14274944 -0.11239662 0.59333241
0.015689833 -0.10237028 0.59445089
0.024819693 -0.10778277 0.59462851
0.14845547 -0.10938939 0.59183615
0.15454218 -0.10584736 0.5961709
0.16002938 -0.10194168 0.59397018
0.0063094045 -0.094835155 0.59666896
0.010823605 -0.098651901 0.59520674
0.16450965 -0.098223791 0.59426391
0.1713759 -0.092502646 0.59545058
-0.0047720242 -0.084969267 0.59496647
0.00022540102 -0.089567669 0.59929001
0.17750369 -0.086241625 0.59620225
0.18087816 -0.082147717 0.59466839
-0.013950122 -0.074257098 0.59400094
0.18574458 -0.076151066 0.59464055
0.19025384 -0.07029739 0.59621572
-0.021949902 -0.061993103 0.59628326
-0.01942108 -0.067099243 0.59409422
0.19252494 -0.066116855 0.59558088
-0.025222799 -0.056423496 0.59390897
0.19766644 -0.056418248 0.59493566
0.20056304 -0.05091225 0.59582895
-0.031170413 -0.043608688 0.59520149
-0.029152742 -0.048432905 0.59697169
0.20238708 -0.046176132 0.59508842
-0.033796541 -0.035009366 0.5953849
0.20581484 -0.034901407 0.59408319
-0.036854696 -0.02357395 0.59652722
0.20848478 -0.025626805 0.59541345
-0.038188644 -0.016149186 0.59309322
0.20970562 -0.015329889 0.59578705
0.21018165 -0.010423824 0.59408849
-0.038980108 -0.006280561 0.59491199
0.21082278 -0.0038161501 0.59516931
-0.038748801 0.0066793459 0.59655333
0.21093534 0.0025748871 0.59493631
-0.038059201 0.013234716 0.59687656
0.20959076 0.016398923 0.59684527
0.21003896 0.011771896 0.59379148
-0.036495827 0.025754282 0.59519017
0.20880079 0.024034364 0.59401995
-0.034282215 0.034098182 0.59297258
0.20583194 0.03497456 0.59394372
-0.030945234 0.045165714 0.5925464
-0.029457252 0.048536923 0.59345001
0.20297839 0.044357888 0.59512651
-0.025857821 0.054931771 0.594666
0.19704045 0.057429302 0.59498614
0.20097114 0.050088406 0.59655154
-0.021029059 0.063195899 0.59787339
-0.019231645 0.067994587 0.59116125
0.19418578 0.062883563 0.59324706
-0.013893472 0.074230514 0.5936802
-0.0088580996 0.079543158 0.59896886
0.18610559 0.075555414 0.59569764
0.19012108 0.070651412 0.59070456
-0.0058371928 0.083786488 0.59505647
0.00020966274 0.089760222 0.59640098
0.17726141 0.086457297 0.59453446
0.18099591 0.081882052 0.59366894
0.0071417186 0.095610738 0.59437549
0.010520162 0.098344408 0.59450257
0.16625179 0.096621066 0.59525806
0.17199108 0.091956608 0.59433925
0.017289471 0.10355755 0.59495956
0.023912553 0.10730202 0.59333956
0.14825724 0.10945363 0.59089571
0.15395278 0.10603696 0.59509873
0.033330724 0.11235093 0.5929935
0.043844629 0.11667541 0.59529066
0.051704288 0.11913893 0.59405124
0.12627798 0.11907119 0.59418297
0.13295755 0.11695927 0.59463882
0.1428819 0.11211288 0.59622902
0.057210028 0.12073534 0.59514451
0.065522835 0.12295214 0.5939191
0.074749552 0.12377612 0.59542626
0.085044786 0.12472092 0.59486961
0.095294021 0.12477659 0.59390068
0.10498633 0.12372457 0.59597039
0.11424781 0.12253151 0.59528369
0.12183967 0.12036386 0.5953145
0.059855621 -0.1211533 0.60228026
0.06564232 -0.12218661 0.605672
0.07555709 -0.12323263 0.60475045
0.08587303 -0.12417592 0.60400152
0.094675489 -0.12420581 0.60713696
0.10506453 -0.12354574 0.60363889
0.11554782 -0.12181109 0.6046412
0.12114156 -0.12031846 0.60249585
0.034998544 -0.11230344 0.60605776
0.044513948 -0.11634538 0.6042192
0.053393587 -0.11882995 0.6080302
0.1255001 -0.11888766 0.60495484
0.13355771 -0.11620631 0.60567421
0.14247027 -0.11212337 0.60437918
0.016545562 -0.10215431 0.60597587
0.024592925 -0.10698515 0.60321397
0.1486477 -0.10872391 0.60651201
0.15569544 -0.10465998 0.60405552
0.1607631 -0.1008612 0.60796773
0.0047313687 -0.092663959 0.60543871
0.011978325 -0.098424867 0.60687238
0.16622519 -0.096475907 0.60462666
0.17219236 -0.091500007 0.60578084
-0.0034251523 -0.08555679 0.60365957
0.0010042303 -0.089220345 0.60859627
0.17679572 -0.0867697 0.60679269
0.18156587 -0.081011057 0.60655522
-0.012766259 -0.074135862 0.60530132
-0.0094496384 -0.078307733 0.60415554
0.18538861 -0.076307923 0.60622746
-0.02082729 -0.062505558 0.60410416
-0.018981759 -0.065606415 0.60554838
0.19169176 -0.067466229 0.60427105
-0.02658952 -0.052178651 0.60240149
0.19805542 -0.055512886 0.60513318
0.20035519 -0.051104479 0.6080811
-0.030618867 -0.0421081 0.60474211
-0.02812917 -0.048511367 0.60540742
0.20259045 -0.045402896 0.60562629
-0.032910302 -0.03427773 0.60584307
0.20545584 -0.036016561 0.60444051
-0.035714325 -0.024513887 0.60586655
0.20846014 -0.025438441 0.60315007
-0.0371309 -0.014503368 0.60463399
0.20963721 -0.016035289 0.60431606
0.21000201 -0.012275414 0.60655183
-0.038143687 -0.0039342246 0.60493237
0.21082242 -0.0038200952 0.6055454
-0.037619486 0.0077951401 0.60609347
0.21090412 0.0028645901 0.60453147
-0.036926325 0.015676979 0.60522252
0.20951864 0.017027557 0.60780561
0.21006145 0.011404851 0.6058327
-0.036235373 0.023367545 0.6042406
0.20828669 0.026046198 0.60496938
-0.032801121 0.034484796 0.60552192
0.205365 0.036364261 0.6074605
-0.030369384 0.041799933 0.60746568
-0.029352892 0.046377651 0.60320675
0.20286091 0.04457191 0.60321218
-0.023778317 0.05660126 0.60516512
0.19774985 0.055885285 0.60447097
0.20077249 0.050386902 0.60040677
-0.020546623 0.062230233 0.60701042
-0.018853584 0.065676741 0.60605645
0.19324444 0.064370438 0.60542697
-0.013175416 0.073371351 0.60579842
-0.0097228028 0.077657402 0.60490286
0.18651116 0.074784219 0.60602599
-0.0040225917 0.08451663 0.60548937
0.0015580531 0.089731582 0.60705519
0.17735136 0.086029068 0.60465908
0.18116871 0.081323721 0.60468668
0.0066951863 0.093985386 0.6063289
0.012113663 0.098729275 0.60344017
0.16643748 0.096143588 0.6040203
0.016162071 0.1019308 0.6041252
0.026702289 0.10777372 0.60563684
0.14712666 0.10927929 0.60920107
0.15536182 0.10496264 0.6044125
0.16109937 0.10043202 0.60737967
0.034809995 0.11229984 0.60363621
0.046210732 0.11679056 0.60432094
0.053108752 0.11884926 0.60478526
0.12653215 0.11845166 0.60579664
0.13550201 0.11538342 0.60683405
0.14280204 0.11173556 0.60607111
0.057024751 0.12030417 0.60075325
0.065158904 0.12218624 0.60572964
0.075797513 0.1234383 0.60546035
0.084103674 0.12396535 0.60580182
0.093981542 0.12414457 0.60531175
0.10452369 0.12331831 0.6048066
0.11463954 0.12187953 0.60540408
0.12139152 0.12013068 0.60315251
0.059778992 -0.12015167 0.61766082
0.06382288 -0.12137198 0.61444485
0.074818701 -0.12260386 0.61480975
0.084267415 -0.1235259 0.61369479
0.094937563 -0.12388398 0.6144321
0.10264957 -0.12328804 0.61472058
0.11543003 -0.12128612 0.61635387
0.036623791 -0.112397 0.61589152
0.044083323 -0.11542495 0.61601424
0.055919874 -0.11911885 0.61551905
0.12505735 -0.11858489 0.61479938
0.1351151 -0.11541961 0.61259258
0.1420716 -0.1119497 0.61395109
0.01745146 -0.10198183 0.61396009
0.026094696 -0.10683016 0.61537457
0.14718845 -0.10904532 0.61857998
0.1555384 -0.10440722 0.61571997
0.16072759 -0.10057414 0.6163618
0.0069004726 -0.093589112 0.61380035
0.012236031 -0.097611651 0.61710536
0.1665732 -0.095803082 0.61678898
0.17173718 -0.091611072 0.61418062
-0.003571718 -0.084123291 0.61334848
0.17741951 -0.085747026 0.61457258
0.18222132 -0.080116175 0.61013579
-0.012273951 -0.073543899 0.61380953
-0.0081099663 -0.078626998 0.61369181
0.18751904 -0.073465481 0.6147384
-0.020591423 -0.060259152 0.61754632
-0.017734682 -0.065801792 0.61461306
0.19250517 -0.065707281 0.61606818
-0.023255471 -0.055902414 0.61464429
0.19784994 -0.055727173 0.6157698
0.2006046 -0.050558113 0.61254573
-0.030283056 -0.041297067 0.61025369
-0.02823171 -0.045841642 0.6143564
0.20267765 -0.044916369 0.61738056
-0.031665385 -0.034943681 0.61561346
0.20539092 -0.036152858 0.61413294
-0.034653708 -0.024573646 0.61565173
0.2085095 -0.024913261 0.61429024
-0.036128562 -0.014597893 0.61400938
0.20942032 -0.018169254 0.61441791
0.21001217 -0.012170635 0.61116892
-0.037019063 -0.0056301458 0.61394483
0.21072505 -0.0048235119 0.61426759
-0.037223127 0.0045216028 0.61287498
0.21068166 0.0050722742 0.61442757
-0.035952479 0.015912263 0.61419374
0.20962851 0.015789313 0.61646688
0.21010977 0.0107779 0.61706531
-0.034525167 0.024542823 0.61659569
0.2085508 0.024795793 0.61416733
-0.031318277 0.035704762 0.61576068
0.20588675 0.034560651 0.61468238
-0.027806414 0.045888424 0.61771947
0.20284989 0.044381008 0.61515534
-0.023781246 0.054307878 0.61625063
0.19681782 0.057428639 0.61366653
0.20031604 0.05094355 0.61712283
-0.020431347 0.061044764 0.6138382
-0.017616997 0.065626442 0.61628985
0.19358867 0.063507259 0.61404258
-0.014595067 0.070525691 0.61378121
-0.009443935 0.076206483 0.61746216
0.18720014 0.073732726 0.61519462
0.19002205 0.070239104 0.61525536
-0.0026499294 0.084635355 0.61638266
0.0025571364 0.089335382 0.61850017
0.17684789 0.086313866 0.61459118
0.1815808 0.080600388 0.61156076
0.0067259362 0.092938013 0.61648434
0.012868628 0.09810061 0.6157611
0.16638996 0.095778055 0.61479855
0.1720507 0.091188312 0.6169095
0.01729103 0.1017676 0.61467314
0.025008621 0.10612841 0.61470652
0.030759418 0.1095643 0.6100803
0.14738867 0.10888159 0.61542898
0.15476145 0.10487512 0.61451095
0.16104275 0.10021064 0.61454201
0.035754375 0.11195099 0.6146006
0.043848075 0.11538891 0.61461639
0.055842575 0.11902435 0.61486834
0.1265067 0.11798567 0.61606228
0.13515247 0.11521736 0.61450326
0.142405 0.11157524 0.61482072
0.062588185 0.12103947 0.61553454
0.073211059 0.12287913 0.61336738
0.085284196 0.12362402 0.61534262
0.095941283 0.12351708 0.61432099
0.10387136 0.12291475 0.61388516
0.11337338 0.12191759 0.61315137
0.064930335 -0.12106514 0.62356842
0.076433286 -0.12214442 0.62546986
0.083922766 -0.1229201 0.6248787
0.093572997 -0.1235008 0.62606567
0.10416777 -0.1226638 0.62528211
0.11510827 -0.12105304 0.62464392
0.036621314 -0.11168414 0.62512743
0.044770882 -0.11508444 0.62434083
0.053057365 -0.11775138 0.62332761
0.11975229 -0.11982828 0.62211138
0.12518094 -0.11809989 0.62465984
0.13286208 -0.11573575 0.62443674
0.14476009 -0.11013348 0.62421906
0.01779723 -0.10125627 0.62523341
0.023091966 -0.1043378 0.62547153
0.031820182 -0.10909118 0.62566662
0.14873917 -0.10793825 0.62573755
0.15625012 -0.10354906 0.62466228
0.0066857086 -0.092380747 0.62371397
0.012244628 -0.096754618 0.62575018
0.16742414 -0.094794296 0.62641197
0.17220148 -0.090947598 0.62300414
-0.0041774153 -0.082057022 0.62331915
0.0025178972 -0.089105234 0.62150836
0.17668243 -0.086282708 0.62552959
0.18158342 -0.080607973 0.62223858
-0.0068689077 -0.078682683 0.62428206
0.18643063 -0.074541792 0.62604266
-0.016454181 -0.066050828 0.62464625
0.19237404 -0.065719068 0.62550819
-0.023741517 -0.053161759 0.62342286
0.19764455 -0.055953965 0.62564528
0.20036888 -0.050803579 0.62477577
-0.026781559 -0.0464365 0.62596047
0.20299874 -0.043811917 0.62496156
-0.03122513 -0.032374427 0.62697637
-0.029158838 -0.038648985 0.62851095
0.20583618 -0.034563869 0.62502885
-0.033654787 -0.024104949 0.62592751
0.20835814 -0.025389992 0.62507796
-0.035023946 -0.014507623 0.62452263
0.20953743 -0.016922571 0.62400615
-0.035881341 -0.0033772828 0.62664205
0.21041456 -0.0080235591 0.62638396
-0.035946239 0.0049422178 0.62444949
0.21076062 0.004287017 0.62472504
-0.034682203 0.01702529 0.62516034
0.20962195 0.015762888 0.62515575
0.21000558 0.011799701 0.62263602
-0.032953914 0.026820747 0.62540925
0.20852545 0.024462072 0.62404132
-0.031033514 0.033949435 0.62332404
-0.029199824 0.038963832 0.62643623
0.20573567 0.034898199 0.62736076
-0.026154516 0.047084194 0.62857199
0.20292194 0.043920621 0.62535524
-0.02177576 0.056242514 0.62486976
-0.019804968 0.059856296 0.62544227
0.19804399 0.054972824 0.62382197
0.20069343 0.050184347 0.62147701
-0.017092228 0.064788841 0.62603998
0.19213964 0.065975875 0.62543517
-0.012010033 0.072251961 0.62353295
-0.0089884438 0.076187246 0.62145364
0.18664902 0.074158669 0.62385464
-0.0033596186 0.082702063 0.6246683
0.0033394909 0.089289248 0.62496132
0.17583936 0.087246656 0.62369275
0.18127982 0.080648802 0.62184858
0.0067761629 0.092145011 0.62438071
0.011904216 0.096375883 0.62465519
0.16534859 0.096305408 0.62475443
0.17145428 0.091437198 0.62399948
0.018212456 0.10158135 0.62430674
0.026554301 0.10597463 0.62657154
0.032285754 0.10909575 0.62643158
0.14712703 0.10865386 0.62461865
0.15630338 0.1034115 0.62482017
0.037719317 0.11215501 0.62583387
0.045776032 0.11533879 0.6241349
0.053710781 0.11774487 0.62442452
0.060062706 0.11963975 0.62606066
0.11866914 0.11999663 0.62353146
0.1263057 0.1176222 0.62551522
0.13314521 0.11539614 0.62767726
0.14421929 0.11017966 0.62468505
0.065600395 0.12127668 0.62344599
0.075472355 0.12249091 0.62468457
0.085717648 0.12324339 0.62550461
0.097719572 0.12284582 0.6249823
0.10380572 0.12238099 0.62464839
0.11499059 0.1209863 0.62453812
0.065558225 -0.120598 0.63479686
0.074757412 -0.12152368 0.63394541
0.083465457 -0.12242074 0.63447601
0.094089314 -0.12311443 0.63421273
0.10274814 -0.1224075 0.63393712
0.11318864 -0.12110943 0.63383138
0.037219681 -0.11117001 0.63583726
0.045875531 -0.11477034 0.63420832
0.054365277 -0.11736872 0.63530713
0.060719699 -0.11947198 0.63282526
0.11888442 -0.11963984 0.63141292
0.12449597 -0.11784863 0.63460463
0.13714911 -0.11355739 0.63459456
0.14170489 -0.1112913 0.63387245
0.018770672 -0.10106455 0.6349234
0.026936792 -0.10557336 0.63618326
0.031752925 -0.10825655 0.63581681
0.14813665 -0.10795094 0.63375223
0.15585983 -0.1035623 0.63486195
0.16025442 -0.10029584 0.63377237
0.0077476706 -0.092145994 0.63434172
0.013827687 -0.097024083 0.63588071
0.16539989 -0.096181966 0.63375813
0.17213094 -0.090612173 0.63545316
-0.0019143566 -0.083401427 0.633497
0.0018250844 -0.087201968 0.63365859
0.17599912 -0.086805522 0.6356855
0.18083808 -0.081215486 0.63136476
-0.011422725 -0.071417592 0.63561857
-0.0071523297 -0.076853149 0.63488621
0.18562967 -0.075307004 0.63492709
-0.015699638 -0.065298207 0.63718683
0.193188 -0.063984647 0.63580209
-0.022165503 -0.053847075 0.63436121
-0.019347245 -0.059093721 0.63488656
0.19679981 -0.057409894 0.63338542
0.20033723 -0.050740369 0.63225806
-0.026725747 -0.043723725 0.63609368
0.20215973 -0.046132062 0.63508946
-0.030568553 -0.032087393 0.63381749
-0.029046157 -0.036331549 0.63613677
0.2054918 -0.03560527 0.63437605
-0.032526959 -0.024358362 0.63575912
0.20832521 -0.025369747 0.63571262
-0.034059856 -0.014971368 0.63319075
0.20970953 -0.015118286 0.63505489
0.21013762 -0.01086993 0.63500708
-0.034887083 -0.0052791396 0.63424671
0.21078871 -0.0041672182 0.63435787
-0.034893423 0.0069099288 0.63247454
0.21062715 0.0056103407 0.63437122
-0.033892628 0.015364404 0.63411725
0.20945172 0.017456975 0.63188589
0.21003358 0.011494717 0.63455993
-0.032592494 0.024341069 0.63477242
0.20841333 0.024949206 0.63461375
-0.030436205 0.031830225 0.63483357
-0.029554402 0.035116848 0.63384247
0.20498751 0.037189864 0.63838947
-0.026161436 0.045202918 0.63588953
0.20207615 0.046544693 0.63422424
-0.021911431 0.054241478 0.63335329
-0.019121844 0.058920309 0.63634944
0.19729696 0.056115597 0.63708627
0.20001495 0.051132418 0.63898832
-0.015974959 0.065048009 0.63422871
0.19184029 0.066243172 0.63771671
-0.010908633 0.071831584 0.6358124
-0.0079913093 0.075373806 0.63585633
0.18668216 0.073871061 0.634556
-0.0024849253 0.082459509 0.63443965
0.0030789596 0.088065639 0.63454276
0.17589781 0.086729646 0.63491672
0.18060932 0.080936551 0.63949555
0.0095418403 0.093608379 0.63216567
0.013894949 0.096886143 0.63617343
0.16457048 0.096625023 0.63381332
0.17152898 0.091039866 0.63467759
0.019863252 0.10173871 0.63485366
0.024575079 0.10426234 0.63466299
0.033012919 0.10878556 0.63548291
0.1465407 0.10860153 0.63370419
0.15562759 0.10349821 0.63534778
0.037697952 0.11152598 0.63366556
0.045608651 0.11444198 0.63654399
0.055902887 0.11777125 0.63465559
0.06180042 0.11956076 0.63588202
0.1192521 0.11908579 0.6391201
0.1238029 0.11787841 0.63598841
0.13462859 0.11456506 0.6356532
0.14095899 0.1115289 0.63409531
0.066927359 0.1207123 0.6364429
0.072798036 0.12164478 0.6345008
0.084761791 0.12271726 0.6371721
0.095469862 0.12264349 0.63506675
0.10428589 0.12175441 0.63641369
0.11366872 0.12078319 0.6333437
0.065521896 -0.12032427 0.64110792
0.076693811 -0.12120512 0.64347214
0.085136168 -0.12221503 0.64385796
0.095286459 -0.12257286 0.6454435
0.10458677 -0.12160496 0.64577222
0.11183061 -0.12073804 0.64530581
0.045723259 -0.1138977 0.64625823
0.054803167 -0.11682621 0.6456638
0.062770344 -0.11937111 0.64417636
0.11701342 -0.11949672 0.64589918
0.1251082 -0.11722342 0.64430702
0.13581716 -0.11365846 0.64391506
0.1426582 -0.11041487 0.64289004
0.018043041 -0.10001143 0.64033771
0.026029393 -0.10438059 0.64443058
0.031996213 -0.10745363 0.6472373
0.14705312 -0.10804681 0.64533007
0.15667571 -0.1025363 0.64537132
0.0079515334 -0.091104195 0.64556587
0.013795228 -0.096059687 0.64527035
0.16466822 -0.096353836 0.64517736
0.17136174 -0.090979598 0.64396524
-0.0027073212 -0.081230745 0.6424529
0.0037757491 -0.087802738 0.64339179
0.17738181 -0.08485128 0.64418501
0.1810915 -0.080381013 0.64839989
-0.011381431 -0.070534021 0.64199829
-0.0075314809 -0.075040817 0.64416605
0.18760671 -0.072574235 0.64726853
-0.014220966 -0.066289037 0.64414197
0.19242902 -0.065144464 0.6449281
-0.021490816 -0.053358693 0.64269847
-0.018835766 -0.058158584 0.64407539
0.19797136 -0.055001318 0.64400989
0.20016462 -0.050875504 0.64391863
-0.025264079 -0.045296527 0.64380687
0.20227158 -0.045694537 0.64366716
-0.028545676 -0.034598485 0.64559305
0.20546618 -0.035504624 0.64688498
-0.031770628 -0.023458773 0.6448552
0.2087058 -0.023769844 0.64351964
-0.033089031 -0.013593372 0.6435827
0.20955548 -0.016548896 0.64590716
0.21015462 -0.010597505 0.6471954
-0.033511054 -0.005116615 0.647291
0.21075521 -0.0045086923 0.64413714
-0.033878177 0.0050071054 0.64377815
0.21063058 0.0055763409 0.64543098
-0.032592908 0.015958617 0.64585537
0.20941932 0.017661195 0.6468277
-0.031550393 0.024018556 0.64537513
0.20861052 0.024682 0.64540988
-0.028292138 0.034470841 0.64756602
0.20596814 0.033907067 0.64494985
-0.025406385 0.044806089 0.64427745
0.20271732 0.044383258 0.64477777
-0.021361506 0.052806105 0.64527029
-0.019217949 0.056751549 0.64598018
0.19764879 0.055333607 0.64565945
0.20023899 0.050632186 0.64458418
-0.014120895 0.066329643 0.64429718
0.19243599 0.064893477 0.64709437
-0.010638589 0.070877016 0.64480829
-0.0082712416 0.07368096 0.64548272
0.18554328 0.074976042 0.64453304
-0.0013180607 0.082398891 0.64540547
0.0037455903 0.087500766 0.64482194
0.17751646 0.084521569 0.64584309
0.18003726 0.081551254 0.64205283
0.015086629 0.096952736 0.64540821
0.16527329 0.09569449 0.64491028
0.1715942 0.090736493 0.64262432
0.026184632 0.10427384 0.64496946
0.032055803 0.1074411 0.64581043
0.14622858 0.10835035 0.64440382
0.15671611 0.10246004 0.64706028
0.037411869 0.11037105 0.64630842
0.043252658 0.11309845 0.6457684
0.053303361 0.11622493 0.64593506
0.063600652 0.11954254 0.645064
0.11595675 0.11975083 0.64621925
0.12512265 0.11705891 0.64570117
0.13430922 0.11427949 0.64371586
0.14107257 0.11095778 0.64604354
0.067787938 0.12029283 0.64690959
0.073446982 0.12122174 0.64328212
0.086852536 0.1225085 0.64558101
0.094301008 0.1223166 0.64727068
0.10494179 0.12126577 0.64545166
0.1129825 0.12041583 0.6470533
0.075716212 -0.1205541 0.65425366
0.086241469 -0.12188227 0.65446937
0.096201733 -0.12207928 0.65490609
0.10711125 -0.12089583 0.65409493
0.11126075 -0.12022299 0.6578294
0.039222389 -0.11078215 0.65452635
0.047757126 -0.11386674 0.65649289
0.056364495 -0.11681788 0.65314031
0.067073055 -0.11957359 0.65408403
0.11593556 -0.1193404 0.6558072
0.12237501 -0.11753448 0.6545729
0.13410637 -0.11400797 0.6529628
0.14179772 -0.11045279 0.65232438
0.024002664 -0.10238908 0.654809
0.032736219 -0.10738081 0.65301305
0.14580038 -0.10825571 0.6555872
0.15566303 -0.10295509 0.65452427
0.0096649565 -0.091150627 0.65854847
0.014581786 -0.0956458 0.65535402
0.1644716 -0.096161321 0.65474427
0.17110343 -0.090919279 0.65263116
-0.0015961934 -0.080965236 0.6542576
0.0043403856 -0.086922027 0.65553904
0.17565724 -0.086416706 0.65608203
0.18033215 -0.081005752 0.65712279
-0.0064721913 -0.074688211 0.65562552
0.18515831 -0.075333931 0.65488058
-0.01355204 -0.06545119 0.6548295
0.18979841 -0.069634832 0.65662348
0.19292818 -0.064022109 0.65364724
-0.020871239 -0.052188441 0.6537286
-0.018477499 -0.056678072 0.65422112
0.19644769 -0.057595804 0.65353853
0.20036958 -0.050321754 0.65394926
-0.024465764 -0.044509083 0.65429372
0.20220146 -0.045667082 0.65438467
-0.027356267 -0.035251424 0.65480983
0.20565808 -0.034739707 0.65582687
-0.03089324 -0.023060393 0.65460014
-0.029792294 -0.026890153 0.65517461
0.20888594 -0.023086153 0.65712273
-0.031423897 -0.015687183 0.65730208
0.20959094 -0.016108371 0.65587163
0.21009618 -0.011115357 0.6540755
-0.032609954 -0.0045339479 0.65626252
0.21073371 -0.0047061387 0.65523404
-0.032550927 0.0056261094 0.6556927
0.2106161 0.0057198508 0.65556067
-0.031623583 0.013636025 0.65712297
0.20959467 0.015851473 0.65493393
0.21002394 0.011590106 0.65499759
-0.030871822 0.024063449 0.65227121
-0.028826434 0.028436789 0.65938914
0.20842485 0.025116144 0.65353346
-0.027233854 0.035653885 0.6542508
0.20589948 0.033978879 0.65490305
-0.024915908 0.043382905 0.65340358
0.20167704 0.047122683 0.65551245
-0.02071809 0.05212694 0.6544494
-0.018521812 0.055877399 0.65670866
0.1975731 0.055352762 0.65287817
-0.013917692 0.064413235 0.65614349
0.19310376 0.063494667 0.65431297
-0.0063772681 0.074668765 0.65537226
0.18717432 0.07279367 0.65491593
-0.0012386108 0.081300959 0.65399122
0.0037381507 0.086343385 0.65509236
0.17567608 0.086249344 0.65776557
0.1806232 0.080580831 0.65345007
0.0084098233 0.090481952 0.6534003
0.014599751 0.095738702 0.65326154
0.16661052 0.094289027 0.65534681
0.1706284 0.09119904 0.65222573
0.025731364 0.10326742 0.65458381
0.033911508 0.10759473 0.65691459
0.14559224 0.10830232 0.65417677
0.15487325 0.1033273 0.65594238
0.038694516 0.11045852 0.65422094
0.04550726 0.11322182 0.65468776
0.056031715 0.1165109 0.65495825
0.061189767 0.11805499 0.65635896
0.11729614 0.11893766 0.65492642
0.12506953 0.11661602 0.65598994
0.1346544 0.1136602 0.65452915
0.14074473 0.11071505 0.6562292
0.068635605 0.1200967 0.6521892
0.07459598 0.12075637 0.6539036
0.085641637 0.12205924 0.6538291
0.096081749 0.121829 0.655177
0.10513725 0.12080052 0.65528738
0.11031942 0.12054531 0.65114409
0.077673197 -0.12035827 0.66412127
0.085683271 -0.12136422 0.66447788
0.096755549 -0.12153774 0.6649189
0.10466317 -0.12064563 0.66495335
0.039306842 -0.11023875 0.66209805
0.044021726 -0.11199281 0.66558373
0.053929985 -0.11523199 0.66526145
0.065975338 -0.1186728 0.66752654
0.072329417 -0.11967714 0.66419417
0.11492515 -0.11889634 0.66951776
0.12537897 -0.11615185 0.66542423
0.1349974 -0.11311801 0.66475141
0.14066719 -0.11037719 0.66764665
0.027894236 -0.10372858 0.66458756
0.033972193 -0.10688378 0.66714859
0.14566857 -0.10788118 0.66590703
0.15374747 -0.10370556 0.66417944
0.009500524 -0.090311989 0.665012
0.01405466 -0.094222218 0.66449571
0.020308346 -0.099680506 0.66205168
0.16514428 -0.095233411 0.66523618
0.17185627 -0.090025097 0.66119778
-0.00050961255 -0.080285117 0.66841567
0.0032326521 -0.08498425 0.66357201
0.17797327 -0.083447315 0.66642332
-0.0039786487 -0.076426901 0.66508019
0.18326704 -0.077278242 0.66524327
-0.012416942 -0.065217242 0.66615403
0.18949783 -0.069924042 0.66048652
0.19262959 -0.064262249 0.66608512
-0.020086825 -0.051134009 0.66569638
-0.01814987 -0.054922529 0.66536742
0.19784629 -0.054786097 0.66493273
-0.022482917 -0.04688789 0.66354418
0.20206283 -0.046044767 0.66501176
-0.025920253 -0.036555313 0.66449618
0.20559143 -0.034824677 0.66350967
-0.030519467 -0.02083542 0.66108727
-0.028851725 -0.02548206 0.66738516
0.20848206 -0.024382951 0.66601127
-0.030573575 -0.015223403 0.66571146
0.20965073 -0.015475982 0.66030025
0.21005754 -0.011360286 0.66956794
-0.031643685 -0.0043904171 0.66544896
0.21067317 -0.0052763154 0.66282874
-0.031580329 0.0042398251 0.66608411
0.21061181 0.0057623466 0.66473675
-0.030742174 0.014982851 0.6642254
0.20968647 0.014935821 0.66506654
0.21011953 0.010642703 0.66620809
-0.030041821 0.021999415 0.66446519
-0.028706091 0.026568908 0.66515887
0.20826139 0.025382016 0.66523409
-0.025979217 0.036107194 0.66482925
0.20528704 0.035784848 0.66462165
-0.022383165 0.046342026 0.66502899
0.20208958 0.045850862 0.66492838
-0.020191878 0.051578671 0.66201293
-0.017709674 0.055730809 0.66498655
0.19797544 0.054434929 0.66411018
-0.013411163 0.06402348 0.66361326
-0.0092839301 0.069892503 0.66350073
0.19292143 0.063632734 0.6655246
-0.0055933692 0.074661866 0.6624648
0.18514279 0.07496728 0.66438442
-0.00064066052 0.080861047 0.66251761
0.0037364454 0.085259989 0.66357392
0.1754258 0.086437158 0.66513389
0.18025628 0.080766641 0.66366518
0.015714694 0.095543809 0.6644212
0.021182997 0.099629611 0.66866827
0.15904151 0.099842578 0.66967362
0.16433237 0.095807828 0.66448325
0.026095774 0.10268921 0.664235
0.033369143 0.10669994 0.66445374
0.14722459 0.10702998 0.66546893
0.15577647 0.10226361 0.66435206
0.039624322 0.11024219 0.66350663
0.04566776 0.11265101 0.66415644
0.05592243 0.11580515 0.66543007
0.065289184 0.11854362 0.66495407
0.071190394 0.119441 0.66922277
0.1091762 0.11994895 0.66483998
0.112465 0.11971498 0.663517
0.12346356 0.11663372 0.6660555
0.13385265 0.11354045 0.66445893
0.1408843 0.11016318 0.66873956
0.076151453 0.12037998 0.66387808
0.085221618 0.12147813 0.66404438
0.094786279 0.12164294 0.66392416
0.10405473 0.12049866 0.66563195
0.078229964 -0.12004215 0.67279303
0.085574292 -0.12088148 0.67497915
0.0946545 -0.12126349 0.67618817
0.10110658 -0.12055421 0.6752373
0.043971445 -0.11133112 0.67450571
0.05731244 -0.11558065 0.67600214
0.064996921 -0.11797694 0.67533022
0.073317297 -0.11930786 0.67520231
0.10803991 -0.11973655 0.67528933
0.11642338 -0.1182995 0.67420971
0.12497412 -0.11575064 0.67639124
0.13481896 -0.11265894 0.67502159
0.026720062 -0.10228354 0.67408293
0.036913469 -0.10803665 0.67285985
0.040397577 -0.10973997 0.67558759
0.14292316 -0.10881929 0.67694259
0.1545126 -0.1027801 0.67426294
0.015837979 -0.094537251 0.67556888
0.020893212 -0.098614119 0.6771878
0.16411971 -0.095659994 0.67552954
0.17101762 -0.090310946 0.67218798
0.005285887 -0.085340731 0.67678207
0.17550662 -0.086154185 0.67500961
0.18040243 -0.080277115 0.67769063
-0.0045453338 -0.074449264 0.67372531
8.4683066e-05 -0.079469077 0.67906159
0.18527225 -0.074572682 0.67585212
-0.012860409 -0.062970921 0.67496789
-0.0088928007 -0.068826281 0.67491829
0.18963049 -0.069400698 0.67351466
0.19196893 -0.065205842 0.67673111
-0.017487096 -0.054305859 0.67419744
0.1983082 -0.053715389 0.67431486
0.20029017 -0.050076015 0.67547709
-0.02249375 -0.043894581 0.67362547
-0.019694407 -0.049892791 0.67501992
0.20200747 -0.04589596 0.67452753
-0.024663137 -0.036347426 0.67666125
0.20535408 -0.035410192 0.67406851
-0.028652193 -0.023617318 0.67329156
0.20823999 -0.025546771 0.67512006
-0.03015621 -0.011703217 0.67279768
-0.029415583 -0.016602764 0.67532188
0.20965524 -0.01530957 0.67393368
0.21015477 -0.010341852 0.67570603
-0.030911962 -0.0040345388 0.67262846
0.2107553 -0.0043840571 0.67523724
-0.030559644 0.0053867265 0.67467034
-0.029823907 0.0090586469 0.67828375
0.21066704 0.0052145459 0.67494005
-0.030140933 0.012885189 0.67181146
-0.029286247 0.015835598 0.67720431
0.20958558 0.015936267 0.67487836
0.21007749 0.011059323 0.67753023
-0.027953869 0.024969887 0.67586523
0.2085847 0.024168063 0.67397547
-0.024950208 0.035489727 0.67627078
0.20529304 0.035573766 0.67601007
-0.022618378 0.043549843 0.67444354
0.20210791 0.045808576 0.67652243
-0.016867792 0.055059142 0.67609006
0.19781433 0.054550771 0.67491281
-0.012484998 0.063633993 0.674492
-0.0093182968 0.068336509 0.674348
0.19215134 0.064828053 0.6773535
-0.0057155355 0.072735451 0.675179
0.18593876 0.073755682 0.6754778
-0.0001100332 0.08020705 0.67197418
0.0046348823 0.084953874 0.6731751
0.010266032 0.08960858 0.6773566
0.1763396 0.084953718 0.67629796
0.014657518 0.093591124 0.67477864
0.02207689 0.099524319 0.6762231
0.15932715 0.099414371 0.67603964
0.16612943 0.094032787 0.67550129
0.17091569 0.090357214 0.67161405
0.026373453 0.10203081 0.67449087
0.035177115 0.10684797 0.67529327
0.14482608 0.10792321 0.67431605
0.15459849 0.10271487 0.67595387
0.04672946 0.1122656 0.67456031
0.053059679 0.11442909 0.67275184
0.064229235 0.1176485 0.67631525
0.073151849 0.11937062 0.6747793
0.10666507 0.11978595 0.67644751
0.11396323 0.1188801 0.67409164
0.12540187 0.11574617 0.67340094
0.13503456 0.1125121 0.67649162
0.0778023 0.12008949 0.6725713
0.084853731 0.12077276 0.67628694
0.094465278 0.12126965 0.67522645
0.10218806 0.12040099 0.6741128
0.083498411 -0.12019126 0.68450761
0.09501677 -0.12072454 0.68614566
0.10125925 -0.12003541 0.68641508
0.044684984 -0.11118072 0.68188787
0.054268997 -0.11422688 0.68468171
0.065977655 -0.1177174 0.68576765
0.073939338 -0.11893956 0.68536884
0.081582569 -0.1198645 0.68635166
0.10526719 -0.11955225 0.68666518
0.11411793 -0.11843552 0.68539739
0.12395588 -0.11574246 0.68554449
0.13377316 -0.11270344 0.68575692
0.02817216 -0.10249986 0.68296921
0.033518855 -0.10542768 0.68410027
0.040721588 -0.10947416 0.68242532
0.1439019 -0.10805757 0.68614888
0.15403134 -0.10275633 0.68435621
0.015992483 -0.094060697 0.68311161
0.021143371 -0.098335043 0.68467629
0.15900461 -0.099441625 0.68608904
0.1640802 -0.095433399 0.68461317
0.006128028 -0.085497588 0.68585062
0.17533956 -0.085951671 0.68480599
0.18044873 -0.08006677 0.68453014
-0.0026741889 -0.075539142 0.68451333
0.0005222389 -0.079293869 0.68787706
0.18339275 -0.076554753 0.6867103
-0.011186267 -0.064326301 0.68624181
-0.0087479698 -0.067935251 0.68441224
0.19179972 -0.065384582 0.68509245
-0.015348773 -0.056758922 0.68410701
0.19778281 -0.054485761 0.68485606
-0.021831071 -0.043421086 0.68628353
-0.019922383 -0.047829427 0.68585932
0.20221487 -0.045160037 0.68602955
-0.024737738 -0.033921994 0.68524188
0.20667917 -0.03104333 0.68347478
-0.027396288 -0.024541542 0.6852417
0.20852454 -0.024030909 0.68535054
-0.028776839 -0.015312003 0.68464613
0.20944734 -0.017377261 0.68351841
0.21018282 -0.01010067 0.6843363
-0.030250479 -0.0022403584 0.68083727
-0.029568255 -0.0061533754 0.68600714
0.21073857 -0.0045630103 0.68305105
-0.030173145 0.00032038003 0.68417299
-0.029580753 0.0048774024 0.68624365
0.21078941 0.0040038191 0.6839034
-0.028870201 0.01402657 0.6847108
0.20954682 0.016323492 0.68537766
0.21002434 0.011588727 0.68453437
-0.027621552 0.023517026 0.68533701
0.20792499 0.026971774 0.68504167
-0.023978023 0.036424987 0.68616551
0.20521791 0.035748236 0.68424648
-0.021086765 0.045362696 0.68523729
-0.019365402 0.049058005 0.68356693
0.20236753 0.044778969 0.68487066
-0.016496858 0.054524839 0.68391687
0.19630268 0.057178348 0.68540019
-0.011365691 0.06404911 0.68545938
-0.0086057093 0.068118244 0.68435228
0.18984832 0.068918884 0.68824333
0.19274448 0.06366235 0.68506843
-0.0045094988 0.073164582 0.68551773
0.00056853937 0.079662062 0.68372184
0.18416332 0.075643808 0.68665409
0.0057823895 0.085119881 0.68523252
0.010154987 0.088872716 0.68840224
0.17513198 0.086063281 0.68543285
0.18028286 0.080250897 0.68540591
0.016415616 0.094386101 0.68365443
0.021569204 0.098609537 0.68507439
0.15876451 0.099562064 0.68951499
0.16408807 0.095428698 0.68412632
0.17053632 0.090229541 0.6888938
0.02742099 0.10198932 0.68551749
0.03368897 0.10546865 0.68538237
0.040652521 0.10940179 0.68325716
0.14401829 0.10800737 0.68489081
0.15289108 0.10339614 0.68438673
0.045238804 0.11128932 0.68528128
0.054969646 0.11439501 0.68637007
0.065386526 0.11763557 0.68313611
0.075381733 0.11919023 0.68398881
0.081034504 0.11973677 0.68819332
0.10432476 0.11963414 0.68788165
0.11243603 0.11875506 0.68566579
0.12489862 0.11548366 0.68440837
0.13511346 0.11231749 0.68474394
0.1400886 0.11007228 0.68243504
0.085452519 0.12044922 0.6845305
0.095256485 0.12073293 0.68543178
0.10095754 0.12027951 0.68123859
